ply
format ascii 1.0
element face 0
property list uchar int vertex_indices
element vertex 917
property float x
property float y
property float z
property uchar diffuse_red
property uchar diffuse_green
property uchar diffuse_blue
end_header
-7.579914e+00 9.289869e+00 -2.658259e+01 108 101 89
-6.877655e+00 1.001872e+01 -2.881553e+01 106 99 90
-6.877655e+00 1.001872e+01 -2.881553e+01 106 99 90
-5.039350e+00 1.283763e+01 -3.564061e+01 111 107 100
-1.805598e+00 -3.818751e+00 -1.464366e+01 188 192 204
-3.643498e+00 -3.900621e+00 -1.534083e+01 185 187 200
-3.578109e+00 -3.340563e+00 -1.523374e+01 179 179 181
1.097960e+00 -1.411674e+00 -6.004165e+00 193 171 162
9.167401e-01 -1.419359e+00 -6.058447e+00 232 206 195
-8.013078e+00 -2.647687e+00 -1.916194e+01 164 158 158
-8.663096e+00 -2.310789e+00 -2.176939e+01 169 169 169
-2.550686e-01 -4.226967e-01 -6.460000e+00 29 33 44
-1.938752e-01 1.420460e-01 -6.539940e+00 177 246 251
1.342435e+01 3.492355e+00 -2.453862e+01 103 119 144
1.358244e+01 3.769604e+00 -2.451875e+01 53 61 79
3.908008e+00 7.447670e+00 -4.246871e+01 150 144 135
3.441647e+00 1.122837e+01 -4.267414e+01 163 149 130
7.257429e+00 1.261749e+01 -4.341672e+01 169 154 131
7.129372e+00 9.501020e+00 -2.661670e+01 154 126 105
-6.770079e+00 1.032157e+01 -2.887408e+01 155 152 144
-4.954229e+00 1.296803e+01 -3.515717e+01 155 149 137
-2.298978e+00 -3.963450e+00 -1.261361e+01 131 150 171
-2.880356e+00 -3.888878e+00 -1.275908e+01 56 68 87
-3.887829e+00 -3.928332e+00 -1.315289e+01 33 39 53
-4.797489e+00 -3.996604e+00 -1.358637e+01 45 51 63
-2.579109e+00 -3.839335e+00 -1.482998e+01 192 196 208
-2.806700e+00 -3.866518e+00 -1.498384e+01 201 211 221
-3.883600e+00 -3.903311e+00 -1.536895e+01 182 185 194
1.841477e+00 -1.480444e+00 -5.577941e+00 22 23 25
1.727588e+00 -1.471638e+00 -5.639836e+00 209 179 167
1.124365e+00 -1.480433e+00 -5.899412e+00 231 209 188
1.124365e+00 -1.480433e+00 -5.899412e+00 231 209 188
1.437603e-02 -1.544192e+00 -6.339445e+00 176 177 185
-3.184595e+00 -3.303599e+00 -1.503380e+01 180 181 186
2.991868e-01 -1.489341e+00 -6.282204e+00 132 98 100
1.003571e+00 -1.420135e+00 -6.047643e+00 212 182 172
-3.602825e+00 -3.227126e+00 -1.520240e+01 54 55 59
-1.382544e+00 -2.941294e+00 -1.413682e+01 41 49 61
-1.561737e+00 -2.950500e+00 -1.422064e+01 29 36 46
-2.346055e+00 -2.992390e+00 -1.450670e+01 41 46 52
-7.251907e+00 -3.513465e+00 -1.676672e+01 158 153 149
-3.476143e+00 -3.055874e+00 -1.501035e+01 28 32 41
-6.575237e+00 -3.388557e+00 -1.651581e+01 32 37 39
-3.814374e+00 -2.420070e+00 -1.741231e+01 169 165 164
-2.416469e+00 -2.058687e+00 -1.662814e+01 24 28 35
-3.803415e+00 -2.138931e+00 -1.723879e+01 28 29 35
2.346065e+00 -2.629284e-01 -5.530933e+00 127 95 86
-8.402818e+00 -1.345507e+00 -2.126983e+01 142 141 144
-1.176012e-01 -4.356617e-02 -6.580754e+00 186 254 255
-7.799504e+00 -3.485894e-01 -2.310463e+01 133 136 137
-2.378138e+00 -1.877520e-01 -2.086940e+01 28 32 40
-7.114271e+00 2.535776e-01 -2.507713e+01 146 137 128
2.049546e+00 3.935604e-01 -5.666864e+00 24 31 37
2.180005e+00 4.109415e-01 -5.659073e+00 118 86 74
-7.361435e+00 6.981271e-01 -2.570021e+01 121 115 111
-4.531076e+00 7.715704e-01 -2.374312e+01 162 167 173
-6.877219e+00 1.221075e+00 -2.735129e+01 142 133 134
8.281752e+00 1.887465e+00 -2.657050e+01 46 54 67
8.144002e+00 2.450189e+00 -2.641925e+01 7 9 8
8.304539e+00 4.736039e+00 -2.701741e+01 73 87 104
3.836211e+00 8.664212e+00 -4.277560e+01 146 146 135
6.771816e+00 1.002408e+01 -4.218504e+01 124 108 92
3.767599e+00 1.058675e+01 -4.319066e+01 131 129 116
8.026315e+00 8.985374e+00 -2.744701e+01 134 116 94
7.896589e+00 9.691002e+00 -2.766297e+01 18 17 13
1.306672e+01 9.067088e+00 -2.476931e+01 122 106 84
-5.239755e+00 1.296926e+01 -3.429310e+01 152 147 136
2.655104e+01 1.942636e+01 -4.702284e+01 35 25 14
2.319294e+01 2.150240e+01 -5.259324e+01 52 36 23
1.883572e+01 2.439942e+01 -5.526519e+01 69 54 35
-3.291450e+00 -4.922942e+00 -1.107659e+01 123 138 158
-4.522467e+00 -5.038105e+00 -1.158814e+01 37 41 42
-4.074135e+00 -4.924803e+00 -1.139553e+01 46 49 58
-4.436846e+00 -4.861518e+00 -1.143145e+01 38 40 53
-2.134221e+00 -4.017699e+00 -1.259290e+01 79 78 87
-2.393309e+00 -4.043354e+00 -1.270439e+01 99 98 95
-2.706082e+00 -4.066243e+00 -1.284927e+01 61 65 76
-2.830377e+00 -4.070083e+00 -1.291418e+01 57 46 43
-4.560856e+00 -4.170599e+00 -1.361754e+01 61 60 60
-3.353795e+00 -3.903812e+00 -1.291297e+01 39 43 54
-4.947599e+00 -3.993621e+00 -1.360006e+01 26 33 42
1.008507e+00 -1.612671e+00 -5.953479e+00 208 167 144
9.736174e-01 -1.479850e+00 -5.949242e+00 229 198 177
1.610521e+00 -1.428995e+00 -5.803580e+00 130 97 92
9.424009e-01 -1.456370e+00 -6.007958e+00 159 110 86
9.424009e-01 -1.456370e+00 -6.007958e+00 159 110 86
5.499520e-01 -1.472756e+00 -6.171815e+00 154 107 88
1.440209e+00 -1.397727e+00 -5.889372e+00 230 204 192
3.579373e-01 -1.479451e+00 -6.240458e+00 122 90 96
-2.826891e+00 -3.195880e+00 -1.487336e+01 40 47 55
1.763303e+00 -1.347964e+00 -5.753587e+00 67 30 28
1.620060e+00 -1.355548e+00 -5.809378e+00 124 56 32
6.728007e-01 -1.434344e+00 -6.171215e+00 242 225 229
6.122472e-01 -1.432895e+00 -6.171560e+00 245 235 244
-1.283236e+00 -2.953968e+00 -1.413639e+01 53 59 72
9.992999e-02 -1.467376e+00 -6.420740e+00 156 158 174
-4.364729e+00 -3.131387e+00 -1.542367e+01 37 41 45
3.023214e-01 -1.304331e+00 -6.245221e+00 181 136 103
1.571464e+00 -1.192495e+00 -5.764187e+00 195 182 184
1.687196e+00 -1.159534e+00 -5.665554e+00 221 204 197
-4.158122e+00 -3.038809e+00 -1.761285e+01 183 180 187
-9.607915e+00 -3.245998e+00 -1.793241e+01 84 87 90
-3.905242e+00 -2.331228e+00 -1.741802e+01 54 55 58
-4.055118e+00 -2.338197e+00 -1.747588e+01 48 50 50
-1.658135e+00 -2.042628e+00 -1.638190e+01 50 50 55
-2.081244e+00 -2.045483e+00 -1.646768e+01 27 34 42
-8.828972e+00 -2.570341e+00 -1.942498e+01 51 59 63
-9.056388e+00 -2.329922e+00 -1.949232e+01 150 152 157
-4.082152e+00 -1.488796e+00 -1.957868e+01 168 169 173
2.074232e+00 -2.522885e-01 -5.499476e+00 134 103 95
-8.118787e+00 -1.424144e+00 -2.115545e+01 24 31 31
2.257873e+00 -2.020095e-01 -5.556515e+00 206 209 220
-8.162719e+00 -1.327984e+00 -2.107917e+01 138 141 146
-1.390861e-01 -1.238437e-01 -6.540573e+00 182 132 84
-1.620391e-01 -5.907118e-02 -6.549087e+00 192 154 104
-5.054568e+00 -4.927678e-01 -2.207755e+01 46 50 54
-2.751868e+00 5.670358e-01 -2.324546e+01 43 45 51
-3.092288e+00 5.583320e-01 -2.345575e+01 43 43 43
-2.361987e+00 5.946582e-01 -2.325629e+01 42 42 44
-7.131646e+00 5.494428e-01 -2.495408e+01 17 20 22
-2.713515e+00 8.679061e-01 -2.314616e+01 167 173 179
-6.526919e+00 1.667346e+00 -2.693025e+01 125 127 129
2.090183e+00 1.703965e+00 -2.353453e+01 171 170 175
8.344992e+00 2.649338e+00 -2.680074e+01 50 62 76
8.249379e+00 3.492247e+00 -2.680381e+01 75 92 110
3.289174e+00 6.904722e+00 -4.177640e+01 67 62 54
3.289174e+00 6.904722e+00 -4.177640e+01 67 62 54
8.980595e+00 5.206832e+00 -2.667466e+01 107 126 150
1.285493e+01 5.335546e+00 -2.461930e+01 86 103 121
8.074018e+00 5.952501e+00 -2.720293e+01 20 19 16
2.167967e+01 1.165805e+01 -5.248056e+01 161 124 94
6.803962e+00 9.227736e+00 -4.193392e+01 91 78 61
3.805998e+00 1.115265e+01 -4.369838e+01 146 141 131
7.976842e+00 1.259564e+01 -4.531918e+01 172 158 139
7.869564e+00 9.417432e+00 -2.735708e+01 197 187 185
7.869564e+00 9.417432e+00 -2.735708e+01 197 187 185
-5.227798e+00 1.320334e+01 -3.431104e+01 97 94 87
2.437098e+01 2.133780e+01 -5.204753e+01 163 145 119
-3.212523e+00 -4.761337e+00 -1.089873e+01 164 156 168
-3.609537e+00 -4.830291e+00 -1.109044e+01 69 64 72
-3.751404e+00 -4.836246e+00 -1.114984e+01 45 52 62
-3.253249e+00 -4.716955e+00 -1.089929e+01 116 133 153
-2.745117e+00 -4.780287e+00 -1.278506e+01 99 112 128
-4.069126e+00 -4.858864e+00 -1.335406e+01 76 84 97
-4.272256e+00 -4.857017e+00 -1.345493e+01 95 93 100
-1.212447e+00 -3.998789e+00 -1.225530e+01 49 56 65
-2.005898e+00 -3.844721e+00 -1.240853e+01 46 54 69
-2.998273e+00 -3.910657e+00 -1.282885e+01 63 76 92
-3.195079e+00 -3.927716e+00 -1.290209e+01 53 65 77
-4.529605e+00 -4.092148e+00 -1.358114e+01 102 115 126
-6.068497e+00 -4.025972e+00 -1.407799e+01 82 81 88
-1.900930e+00 -3.888929e+00 -1.460913e+01 104 109 122
1.474692e+00 -1.587949e+00 -5.747753e+00 174 148 129
1.145575e+00 -1.555217e+00 -5.859954e+00 217 188 156
1.093114e+00 -1.542477e+00 -5.877237e+00 228 193 146
9.635310e-01 -1.538220e+00 -5.929483e+00 219 190 176
6.715638e-02 -1.615558e+00 -6.293036e+00 182 146 126
-3.195402e-02 -1.606411e+00 -6.327739e+00 16 23 29
9.338451e-01 -1.477019e+00 -5.949648e+00 227 201 196
3.492745e-02 -1.582984e+00 -6.348938e+00 137 95 91
8.565855e-02 -1.548933e+00 -6.294167e+00 244 229 232
8.565855e-02 -1.548933e+00 -6.294167e+00 244 229 232
7.558227e-01 -1.470338e+00 -6.111069e+00 132 91 81
7.558227e-01 -1.470338e+00 -6.111069e+00 132 91 81
1.673752e+00 -1.351315e+00 -5.782905e+00 101 45 26
2.228862e+00 -1.250869e+00 -5.329782e+00 55 70 86
2.228862e+00 -1.250869e+00 -5.329782e+00 55 70 86
2.342366e-01 -1.317328e+00 -6.287174e+00 160 118 99
-9.638956e+00 -3.226794e+00 -1.780087e+01 84 85 89
-4.132077e+00 -2.423817e+00 -1.757472e+01 167 165 162
-9.179733e+00 -2.335136e+00 -2.025256e+01 90 88 90
-2.132966e-01 -4.677019e-01 -6.406431e+00 91 107 131
-2.460055e+00 -1.409403e+00 -1.891553e+01 178 173 167
-9.472822e+00 -1.540224e+00 -1.961433e+01 189 187 192
-9.472822e+00 -1.540224e+00 -1.961433e+01 189 187 192
-3.313616e-01 -3.708366e-01 -6.513988e+00 22 16 16
2.234014e+00 -2.327114e-01 -5.547403e+00 43 29 19
2.135923e+00 -1.890244e-01 -5.571342e+00 224 231 241
2.377619e+00 -1.830139e-01 -5.604693e+00 166 139 120
-2.061571e+00 -4.536774e-01 -2.096089e+01 176 172 171
-2.460909e+00 -2.716507e-01 -2.098215e+01 86 96 105
-2.360498e-01 1.328095e-01 -6.488297e+00 109 76 59
-6.554292e+00 1.386774e+00 -2.710724e+01 36 41 46
8.364347e+00 1.849740e+00 -2.695773e+01 59 65 78
-7.559672e+00 1.945294e+00 -2.608504e+01 122 112 110
8.123045e+00 2.728469e+00 -2.648905e+01 11 15 18
8.306265e+00 3.654012e+00 -2.701367e+01 83 100 121
8.773000e+00 4.315781e+00 -2.693517e+01 60 75 96
-1.854624e+00 6.880519e+00 -4.410506e+01 147 148 153
-1.850863e+00 6.839523e+00 -4.384278e+01 146 147 152
2.935407e+00 6.978219e+00 -4.138716e+01 163 166 173
2.935407e+00 6.978219e+00 -4.138716e+01 163 166 173
-6.431537e+00 5.081216e+00 -2.996816e+01 116 114 115
-6.684218e-01 7.664028e+00 -4.374136e+01 142 147 151
-6.684218e-01 7.664028e+00 -4.374136e+01 142 147 151
3.890853e+00 7.622940e+00 -4.244344e+01 160 158 150
8.994513e+00 5.350862e+00 -2.667775e+01 87 98 122
8.994513e+00 5.350862e+00 -2.667775e+01 87 98 122
1.096590e+01 5.221202e+00 -2.536867e+01 89 109 132
9.441102e+00 5.369699e+00 -2.639579e+01 81 92 110
9.441823e+00 5.369306e+00 -2.639769e+01 81 92 110
2.761475e+00 8.035157e+00 -4.142924e+01 161 159 165
3.181570e+00 8.560094e+00 -4.268180e+01 66 61 55
3.181570e+00 8.560094e+00 -4.268180e+01 66 61 55
3.773379e+00 9.245157e+00 -4.258926e+01 167 164 155
7.515514e+00 6.347607e+00 -2.695403e+01 86 96 113
2.441530e+00 9.525038e+00 -4.187264e+01 168 169 177
2.441530e+00 9.525038e+00 -4.187264e+01 168 169 177
2.753019e+00 9.845677e+00 -4.150573e+01 148 148 146
2.661431e+00 1.022232e+01 -4.140642e+01 143 144 148
-7.839403e-01 1.081772e+01 -4.342978e+01 156 157 161
-7.839403e-01 1.081772e+01 -4.342978e+01 156 157 161
2.733493e+00 1.062767e+01 -4.179896e+01 149 147 145
6.292092e+00 1.101169e+01 -4.136536e+01 112 105 86
3.842025e+00 1.234612e+01 -4.286941e+01 105 100 81
6.264839e+00 1.237421e+01 -4.160112e+01 111 104 86
6.264839e+00 1.237421e+01 -4.160112e+01 111 104 86
8.006787e+00 9.307349e+00 -2.729373e+01 73 52 38
-3.027671e+00 1.340077e+01 -4.160857e+01 104 94 85
-5.451523e+00 1.317661e+01 -3.361751e+01 114 108 96
2.292503e+01 2.152239e+01 -5.338188e+01 100 77 59
2.216374e+01 2.100681e+01 -5.218881e+01 104 87 69
2.216374e+01 2.100681e+01 -5.218881e+01 104 87 69
2.287293e+01 2.116727e+01 -5.227482e+01 98 76 59
1.868528e+01 2.392289e+01 -5.465576e+01 121 105 82
-3.046672e+00 -4.897707e+00 -1.096842e+01 131 156 171
-2.170629e+00 -4.648218e+00 -1.046443e+01 133 147 168
-2.537773e+00 -4.710620e+00 -1.061652e+01 186 180 196
-2.664663e+00 -4.714960e+00 -1.066784e+01 184 176 193
-2.818296e+00 -4.734973e+00 -1.074978e+01 167 163 180
-2.875467e+00 -4.742171e+00 -1.076612e+01 173 159 174
-2.557987e+00 -4.676212e+00 -1.063442e+01 134 148 174
-2.963972e+00 -4.745776e+00 -1.079408e+01 177 157 166
-2.828304e+00 -4.686313e+00 -1.072967e+01 118 136 154
-4.285831e+00 -5.017745e+00 -1.151640e+01 98 118 130
-3.120473e+00 -4.720328e+00 -1.086999e+01 125 138 160
-3.410183e+00 -4.767379e+00 -1.097697e+01 180 157 170
-4.470608e+00 -5.024763e+00 -1.159522e+01 115 126 134
-3.485040e+00 -4.714819e+00 -1.096918e+01 132 144 168
-3.836194e+00 -4.790142e+00 -1.114765e+01 143 128 140
-4.484075e+00 -4.947587e+00 -1.152691e+01 96 110 117
-3.541294e+00 -4.716401e+00 -1.098623e+01 127 139 161
-3.709567e+00 -4.734988e+00 -1.107141e+01 110 117 138
-4.320503e+00 -4.866120e+00 -1.139202e+01 45 49 60
-4.180132e+00 -4.835908e+00 -1.132665e+01 142 128 141
-3.873955e+00 -4.769433e+00 -1.118332e+01 110 119 137
-3.955278e+00 -4.746584e+00 -1.116636e+01 109 117 136
-4.664077e+00 -4.850523e+00 -1.151700e+01 135 134 149
-4.629587e+00 -4.796310e+00 -1.146981e+01 101 116 133
-4.623699e+00 -4.749390e+00 -1.146500e+01 218 236 252
-6.914764e+00 -5.127588e+00 -1.261022e+01 101 120 134
-1.089148e+00 -4.713627e+00 -1.220137e+01 109 117 135
-1.198994e+00 -4.695879e+00 -1.221992e+01 100 102 114
-2.451352e+00 -4.773319e+00 -1.247421e+01 85 94 109
-1.068239e+00 -3.940874e+00 -1.215180e+01 109 126 149
-2.553276e+00 -4.063350e+00 -1.277576e+01 77 82 86
-2.052005e+00 -3.956645e+00 -1.253274e+01 64 76 95
-2.976649e+00 -4.060559e+00 -1.294335e+01 147 162 185
-2.799472e+00 -3.987994e+00 -1.284042e+01 113 135 149
-3.257829e+00 -4.058395e+00 -1.308242e+01 37 48 60
-3.938422e+00 -4.136306e+00 -1.333525e+01 71 70 76
-3.418394e+00 -4.063903e+00 -1.312953e+01 33 41 57
-3.015835e+00 -3.993612e+00 -1.293125e+01 144 164 178
-3.894642e+00 -4.112813e+00 -1.334460e+01 100 113 121
-4.379384e+00 -4.173642e+00 -1.354606e+01 72 78 80
-4.457647e+00 -4.168361e+00 -1.354931e+01 71 70 66
-3.944640e+00 -4.047219e+00 -1.335334e+01 85 95 105
-5.401333e+00 -4.034719e+00 -1.380741e+01 26 29 37
-7.342638e+00 -4.111856e+00 -1.457134e+01 44 45 58
-1.979787e+00 -3.848077e+00 -1.444360e+01 94 99 115
1.762462e+00 -1.526506e+00 -5.612234e+00 205 175 141
1.323537e+00 -1.552057e+00 -5.795457e+00 216 177 129
2.253289e-01 -1.660494e+00 -6.253196e+00 179 132 103
7.507607e-01 -1.583461e+00 -6.015241e+00 221 179 121
8.172437e-01 -1.549710e+00 -5.982537e+00 235 210 186
7.846168e-01 -1.560934e+00 -6.029037e+00 231 194 146
1.795983e+00 -1.444313e+00 -5.558620e+00 147 138 138
1.082020e+00 -1.518946e+00 -5.885134e+00 191 150 125
1.082020e+00 -1.518946e+00 -5.885134e+00 191 150 125
-9.856311e+00 -4.286392e+00 -1.787976e+01 70 64 66
1.181911e+00 -1.499010e+00 -5.860832e+00 236 203 170
1.181911e+00 -1.499010e+00 -5.860832e+00 236 203 170
1.828480e+00 -1.431690e+00 -5.607532e+00 27 26 31
2.750004e-01 -1.562222e+00 -6.191746e+00 219 176 138
8.954175e-01 -1.485938e+00 -5.999412e+00 227 205 191
1.031013e+00 -1.466978e+00 -5.946869e+00 214 188 164
6.292078e-01 -1.491529e+00 -6.099350e+00 197 176 157
-1.918802e+00 -3.192739e+00 -1.462670e+01 43 46 51
-1.512431e-02 -1.527004e+00 -6.344243e+00 24 25 33
-1.597870e+00 -3.051907e+00 -1.439445e+01 86 99 115
-1.672115e+00 -3.042691e+00 -1.435970e+01 85 100 115
-2.216541e+00 -3.081590e+00 -1.459840e+01 95 113 129
-2.384916e+00 -3.084402e+00 -1.465760e+01 90 104 114
-4.212297e+00 -3.182993e+00 -1.542858e+01 72 77 83
-6.817367e+00 -3.439237e+00 -1.665182e+01 59 55 52
1.429901e+00 -1.183325e+00 -5.811282e+00 230 218 204
-7.033890e+00 -3.190611e+00 -1.647391e+01 137 135 144
5.820420e-01 -1.238305e+00 -6.127361e+00 242 236 239
-7.876047e+00 -3.266876e+00 -1.689558e+01 37 44 50
1.657450e+00 -1.151509e+00 -5.779990e+00 171 124 96
-5.442607e+00 -3.150569e+00 -1.804324e+01 66 75 82
-2.472611e-01 -1.090817e+00 -6.321799e+00 58 73 92
-2.670774e+00 -2.188600e+00 -1.686944e+01 99 110 112
-8.697781e+00 -2.336713e+00 -2.150628e+01 90 90 90
-4.639353e-01 -6.010695e-01 -6.275317e+00 23 31 40
2.056839e+00 -2.793291e-01 -5.565418e+00 13 12 14
2.259181e+00 -2.569087e-01 -5.518423e+00 105 82 76
-7.823013e+00 -6.631904e-01 -2.324368e+01 56 53 49
1.976901e+00 1.860283e-01 -5.804997e+00 74 71 51
2.077692e+00 3.167321e-01 -5.582041e+00 76 52 46
2.024436e+00 4.141309e-01 -5.697314e+00 247 201 165
-2.741589e+00 6.704642e-01 -2.328178e+01 76 81 85
1.112126e+00 2.959119e+00 -2.590601e+01 31 44 50
8.443272e+00 3.601629e+00 -2.691319e+01 66 77 92
-6.447292e+00 3.868949e+00 -2.983562e+01 117 109 106
6.315262e+00 6.807704e+00 -4.135656e+01 122 126 126
6.575275e+00 7.070690e+00 -4.124495e+01 179 177 165
6.437145e+00 7.123242e+00 -4.101920e+01 108 105 88
6.437145e+00 7.123242e+00 -4.101920e+01 108 105 88
4.050585e+00 7.221598e+00 -4.218689e+01 96 99 92
4.050585e+00 7.221598e+00 -4.218689e+01 96 99 92
6.654880e+00 7.267148e+00 -4.141013e+01 175 175 169
6.490163e+00 7.300072e+00 -4.096768e+01 112 107 97
6.704795e+00 7.457583e+00 -4.134738e+01 187 185 178
8.074926e+00 5.217222e+00 -2.681663e+01 25 30 34
6.413532e+00 7.454993e+00 -4.098653e+01 176 175 166
4.057998e+00 7.629685e+00 -4.241851e+01 95 98 87
4.057998e+00 7.629685e+00 -4.241851e+01 95 98 87
6.843979e+00 7.650744e+00 -4.175889e+01 104 95 80
6.484638e+00 7.668756e+00 -4.105929e+01 112 110 96
6.300881e+00 7.633183e+00 -4.087820e+01 179 175 169
6.677280e+00 7.799299e+00 -4.126754e+01 174 171 160
6.677280e+00 7.799299e+00 -4.126754e+01 174 171 160
6.429451e+00 7.853421e+00 -4.114472e+01 177 173 164
6.562850e+00 8.170311e+00 -4.127803e+01 190 182 171
6.730880e+00 8.369981e+00 -4.172867e+01 101 93 77
6.552479e+00 8.387656e+00 -4.153150e+01 184 181 176
6.552479e+00 8.387656e+00 -4.153150e+01 184 181 176
7.374479e+00 5.788824e+00 -2.645045e+01 18 19 23
3.975919e+00 8.723513e+00 -4.258676e+01 89 95 87
6.555339e+00 8.751611e+00 -4.149273e+01 176 175 163
6.555339e+00 8.751611e+00 -4.149273e+01 176 175 163
6.550735e+00 9.106913e+00 -4.146116e+01 180 179 167
3.938074e+00 9.279778e+00 -4.263468e+01 79 79 67
6.307375e+00 9.165643e+00 -4.146520e+01 182 175 165
6.531024e+00 9.320933e+00 -4.162018e+01 174 169 162
6.531024e+00 9.320933e+00 -4.162018e+01 174 169 162
2.249774e+01 1.255222e+01 -5.439805e+01 237 221 195
3.151449e+00 9.624409e+00 -4.283014e+01 68 59 53
6.529960e+00 9.451203e+00 -4.132710e+01 167 161 149
6.315491e+00 9.549519e+00 -4.152021e+01 173 168 161
6.520585e+00 9.706371e+00 -4.159284e+01 175 172 163
3.903640e+00 9.834451e+00 -4.266721e+01 83 84 68
3.903640e+00 9.834451e+00 -4.266721e+01 83 84 68
6.651251e+00 9.895933e+00 -4.192763e+01 106 95 75
6.484739e+00 9.908726e+00 -4.169680e+01 181 175 161
6.506855e+00 1.008898e+01 -4.170366e+01 175 173 161
6.516088e+00 1.021473e+01 -4.141517e+01 172 164 149
6.266134e+00 1.026922e+01 -4.141932e+01 173 170 158
6.485968e+00 1.045058e+01 -4.158648e+01 179 168 156
6.659206e+00 1.067335e+01 -4.209292e+01 102 95 76
6.444327e+00 1.062882e+01 -4.166138e+01 160 160 144
3.166661e+00 1.113967e+01 -4.319028e+01 70 63 54
3.166661e+00 1.113967e+01 -4.319028e+01 70 63 54
6.665853e+00 1.105303e+01 -4.211920e+01 108 96 80
6.470353e+00 1.102323e+01 -4.178149e+01 172 168 157
3.683529e+00 1.122927e+01 -4.309703e+01 115 112 97
6.162963e+00 1.099030e+01 -4.138002e+01 164 159 149
3.887311e+00 1.135145e+01 -4.288646e+01 102 96 82
6.531034e+00 1.124168e+01 -4.186530e+01 174 170 158
6.280672e+00 1.137603e+01 -4.153162e+01 101 102 84
6.474005e+00 1.159409e+01 -4.182139e+01 174 166 156
6.619186e+00 1.177669e+01 -4.209570e+01 103 91 71
6.430743e+00 1.178886e+01 -4.183655e+01 173 161 151
6.430743e+00 1.178886e+01 -4.183655e+01 173 161 151
6.419311e+00 1.212855e+01 -4.175433e+01 174 168 155
6.445901e+00 1.253399e+01 -4.178797e+01 178 171 159
8.038469e+00 9.143806e+00 -2.763030e+01 127 111 88
9.702928e+00 9.445609e+00 -2.643693e+01 166 154 153
-4.596322e+00 1.331824e+01 -3.657373e+01 106 98 92
-3.631092e+00 -5.035568e+00 -1.130066e+01 67 74 80
-3.190899e+00 -4.896305e+00 -1.101741e+01 127 143 163
-2.476551e+00 -4.711996e+00 -1.060662e+01 178 174 194
-2.391486e+00 -4.656586e+00 -1.054152e+01 136 147 172
-4.118996e+00 -4.938822e+00 -1.139385e+01 72 84 96
-4.604647e+00 -5.028690e+00 -1.163429e+01 96 106 115
-3.826384e+00 -4.835485e+00 -1.117968e+01 42 42 50
-3.726332e+00 -4.803040e+00 -1.114134e+01 163 136 148
-3.944388e+00 -4.808967e+00 -1.120810e+01 133 130 146
-4.819154e+00 -4.986762e+00 -1.168916e+01 76 87 93
-4.573076e+00 -4.836628e+00 -1.145959e+01 128 118 134
-2.384822e+00 -4.782144e+00 -1.248250e+01 91 98 114
-3.700388e-01 -2.606868e+00 -6.266112e+00 128 100 100
-1.140198e+00 -3.987654e+00 -1.220658e+01 54 60 68
-1.843578e+00 -4.003777e+00 -1.250402e+01 125 142 156
-1.781456e+00 -3.952469e+00 -1.244377e+01 38 52 63
-1.829576e+00 -3.974067e+00 -1.251410e+01 54 70 86
-2.287986e+00 -4.017323e+00 -1.265431e+01 150 168 181
-2.906292e+00 -4.078332e+00 -1.289198e+01 93 86 83
-2.604397e+00 -4.031162e+00 -1.278389e+01 126 134 145
-2.888834e+00 -4.058083e+00 -1.292458e+01 133 143 156
-2.336663e+00 -3.960645e+00 -1.264683e+01 136 158 178
-1.109558e+00 -3.743966e+00 -1.201201e+01 138 149 173
-3.187864e+00 -4.072718e+00 -1.304239e+01 102 118 129
-2.905356e+00 -3.991174e+00 -1.288300e+01 130 150 168
-3.178772e+00 -4.036002e+00 -1.304007e+01 35 48 62
-4.058029e+00 -4.153723e+00 -1.341141e+01 71 75 78
-4.115739e+00 -4.144382e+00 -1.340900e+01 58 63 68
-3.229126e+00 -4.010506e+00 -1.303845e+01 107 121 130
-1.668524e+00 -3.743846e+00 -1.223988e+01 138 146 174
-1.965380e+00 -3.763901e+00 -1.235484e+01 145 154 178
-2.128071e+00 -3.783177e+00 -1.244593e+01 127 136 158
-2.344721e+00 -3.803221e+00 -1.253135e+01 115 120 140
-3.093023e+00 -3.886360e+00 -1.283410e+01 43 52 67
-3.261763e+00 -3.899065e+00 -1.290902e+01 39 57 71
-4.847248e+00 -4.171319e+00 -1.374533e+01 97 110 118
-4.414373e+00 -4.078208e+00 -1.348928e+01 39 51 62
-5.192992e+00 -4.186303e+00 -1.387346e+01 109 108 108
-2.986961e+00 -3.816544e+00 -1.274150e+01 127 139 156
-4.661020e+00 -4.089831e+00 -1.360410e+01 122 130 143
-3.305310e+00 -3.839876e+00 -1.289701e+01 116 123 144
-4.871740e+00 -4.099030e+00 -1.370691e+01 115 117 129
-4.913468e+00 -4.101914e+00 -1.370096e+01 49 52 64
-4.552672e+00 -3.887892e+00 -1.338918e+01 114 121 140
-5.710868e+00 -4.033741e+00 -1.394505e+01 98 106 123
-3.632428e+00 -3.946008e+00 -1.518120e+01 84 89 101
5.944197e-01 -1.628769e+00 -6.087673e+00 177 141 126
1.285298e+00 -1.552634e+00 -5.787555e+00 227 192 163
2.679147e-01 -1.659621e+00 -6.225377e+00 152 105 85
4.808887e-01 -1.625274e+00 -6.101852e+00 173 135 126
1.069575e+00 -1.561176e+00 -5.897700e+00 178 148 122
1.044339e+00 -1.557302e+00 -5.892684e+00 160 132 108
7.776020e-01 -1.586075e+00 -5.999820e+00 213 174 131
3.173578e-01 -1.608769e+00 -6.186735e+00 215 183 163
7.515013e-01 -1.556913e+00 -5.989091e+00 173 131 118
6.143843e-01 -1.575145e+00 -6.073861e+00 171 135 126
1.063624e+00 -1.520955e+00 -5.888907e+00 193 154 125
1.063624e+00 -1.520955e+00 -5.888907e+00 193 154 125
1.133439e-01 -1.576140e+00 -6.264547e+00 207 161 116
5.724970e-01 -1.521868e+00 -6.073986e+00 239 209 183
1.752979e-01 -1.537638e+00 -6.323580e+00 147 117 127
8.261700e-01 -1.461099e+00 -6.055717e+00 152 104 83
1.498877e+00 -1.385605e+00 -5.845349e+00 214 187 178
-2.086638e+00 -3.116664e+00 -1.450784e+01 102 114 126
-1.206811e+00 -3.020780e+00 -1.417194e+01 95 112 132
-1.308018e+00 -3.025566e+00 -1.422079e+01 96 113 128
-1.222571e+00 -2.857996e+00 -1.411495e+01 138 153 175
-1.337232e+00 -2.854055e+00 -1.408421e+01 134 146 166
-3.143598e+00 -2.953933e+00 -1.481989e+01 123 131 153
1.800580e+00 -1.216652e+00 -5.657096e+00 115 95 103
-4.349524e+00 -3.071879e+00 -1.538878e+01 135 130 134
-4.508448e+00 -3.082960e+00 -1.545642e+01 154 139 151
1.738405e+00 -1.208263e+00 -5.674158e+00 150 113 105
1.664889e+00 -1.209217e+00 -5.714022e+00 168 119 105
-4.175301e+00 -3.007592e+00 -1.525895e+01 115 124 135
-5.009115e+00 -3.081154e+00 -1.561249e+01 147 152 168
3.716916e-01 -1.311616e+00 -6.243427e+00 134 77 47
-5.660479e+00 -3.121916e+00 -1.590680e+01 155 148 156
3.883457e-01 -1.290129e+00 -6.243208e+00 240 199 186
1.147222e-01 -1.309125e+00 -6.335283e+00 143 96 88
1.773596e+00 -1.162361e+00 -5.682781e+00 150 134 148
-4.101359e+00 -3.071860e+00 -1.743595e+01 82 82 94
-4.175398e+00 -3.084880e+00 -1.752375e+01 81 89 96
-6.114573e-01 -1.081732e+00 -6.714088e+00 47 49 51
-4.536572e-01 -9.448128e-01 -6.333193e+00 83 101 122
-4.203197e+00 -2.428453e+00 -1.751281e+01 93 92 96
-1.697152e+00 -2.221822e+00 -1.652969e+01 79 82 79
-4.967411e+00 -2.447163e+00 -1.792488e+01 125 132 140
-1.392671e+00 -1.953693e+00 -1.617236e+01 157 136 137
-2.091380e+00 -1.985263e+00 -1.647136e+01 177 186 194
-2.351413e+00 -2.002994e+00 -1.663418e+01 137 148 166
-3.878827e+00 -1.432902e+00 -1.962508e+01 52 52 50
-3.090347e-01 -3.844979e-01 -6.488706e+00 128 101 93
-3.536412e-01 -3.745042e-01 -6.522794e+00 139 103 91
-2.097729e+00 -1.105813e+00 -1.861515e+01 124 126 135
2.206283e+00 -2.128384e-01 -5.558328e+00 123 94 83
2.044078e+00 -1.927504e-01 -5.605385e+00 212 186 162
-8.141588e+00 -1.382709e+00 -2.337020e+01 99 94 95
-7.554441e+00 -2.586948e-01 -2.527426e+01 112 102 102
2.105129e+00 1.946154e-01 -5.603066e+00 94 96 72
2.105129e+00 1.946154e-01 -5.603066e+00 94 96 72
-1.545456e+00 -3.595978e-02 -2.046340e+01 188 192 201
2.099309e+00 4.071578e-01 -5.620723e+00 237 185 135
9.210203e-01 8.367723e-01 -2.163671e+01 80 85 89
1.875028e+00 1.780433e+00 -2.356430e+01 72 79 82
-1.196713e+00 1.853417e+00 -2.452039e+01 68 73 76
-9.872434e-01 1.875351e+00 -2.452952e+01 82 86 93
2.205005e+00 3.024362e+00 -2.537555e+01 75 77 82
8.508485e+00 3.589272e+00 -2.680809e+01 25 37 50
-9.680661e+00 2.693246e+00 -1.994579e+01 129 136 142
4.149927e+00 7.044121e+00 -4.268578e+01 171 175 169
4.149927e+00 7.044121e+00 -4.268578e+01 171 175 169
4.256297e+00 7.017961e+00 -4.236038e+01 185 185 183
4.296430e+00 7.194615e+00 -4.230414e+01 189 190 185
4.296430e+00 7.194615e+00 -4.230414e+01 189 190 185
4.137142e+00 7.452873e+00 -4.245302e+01 88 86 80
4.137142e+00 7.452873e+00 -4.245302e+01 88 86 80
6.626944e+00 7.634818e+00 -4.133174e+01 180 177 169
4.145539e+00 8.343886e+00 -4.336976e+01 91 93 84
4.111188e+00 9.342973e+00 -4.315872e+01 155 156 142
4.111188e+00 9.342973e+00 -4.315872e+01 155 156 142
6.099419e+00 9.303033e+00 -4.167285e+01 164 162 153
5.765820e+00 9.251412e+00 -4.151165e+01 168 164 159
6.298619e+00 9.880225e+00 -4.126537e+01 113 106 90
6.298619e+00 9.880225e+00 -4.126537e+01 113 106 90
6.203798e+00 1.002331e+01 -4.122002e+01 167 165 150
6.033158e+00 1.004338e+01 -4.135544e+01 80 80 75
6.033158e+00 1.004338e+01 -4.135544e+01 80 80 75
-1.866727e+00 1.107864e+01 -4.407717e+01 138 139 138
6.196765e+00 1.077545e+01 -4.124335e+01 167 160 143
3.918150e+00 1.111573e+01 -4.261414e+01 105 103 90
3.918150e+00 1.111573e+01 -4.261414e+01 105 103 90
3.760452e+00 1.133009e+01 -4.276172e+01 167 160 148
6.259405e+00 1.124384e+01 -4.155409e+01 174 168 157
3.791057e+00 1.157027e+01 -4.295832e+01 165 159 143
3.665406e+00 1.163603e+01 -4.305608e+01 129 120 103
3.875606e+00 1.179361e+01 -4.297406e+01 99 85 69
3.731893e+00 1.168638e+01 -4.268500e+01 179 179 174
7.415277e+00 1.235089e+01 -4.395254e+01 116 100 83
6.229524e+00 1.205121e+01 -4.182919e+01 160 155 137
6.157327e+00 1.212980e+01 -4.148475e+01 174 163 152
6.613757e+00 1.254089e+01 -4.231544e+01 125 114 94
8.071087e+00 9.268136e+00 -2.751602e+01 120 142 166
-1.025505e+00 -4.538780e+00 -1.031090e+01 67 78 92
-4.234413e+00 -4.826531e+00 -1.133302e+01 65 62 81
-4.735632e+00 -4.843028e+00 -1.153346e+01 144 143 155
-4.778343e+00 -4.847151e+00 -1.155607e+01 148 140 151
-2.467167e+00 -4.775381e+00 -1.260010e+01 140 153 170
-1.205849e+00 -4.117856e+00 -1.227025e+01 122 120 122
-3.662962e-01 -2.271695e+00 -6.278961e+00 58 66 81
-1.232613e+00 -3.758599e+00 -1.207667e+01 153 167 190
-2.032507e+00 -3.866075e+00 -1.241524e+01 92 99 110
-1.283971e+00 -3.755151e+00 -1.208241e+01 146 160 183
-1.444007e+00 -3.780552e+00 -1.217236e+01 59 65 91
-1.498360e+00 -3.778022e+00 -1.218981e+01 46 53 71
-2.584624e+00 -3.923811e+00 -1.268384e+01 63 76 92
-1.106972e+00 -3.704118e+00 -1.200231e+01 146 158 189
-1.829073e+00 -3.798152e+00 -1.233575e+01 158 164 188
-2.045830e+00 -3.798542e+00 -1.238553e+01 156 162 178
-2.127072e+00 -3.792100e+00 -1.237318e+01 162 171 189
-4.441795e+00 -4.142882e+00 -1.358469e+01 104 107 110
-3.291448e+00 -3.932699e+00 -1.294094e+01 121 126 144
-2.983144e+00 -3.868986e+00 -1.280408e+01 149 157 178
-3.187899e+00 -3.874742e+00 -1.288677e+01 134 148 164
-3.298437e+00 -3.880505e+00 -1.291698e+01 170 178 194
-2.606322e+00 -3.750908e+00 -1.266987e+01 61 71 75
-4.673680e+00 -4.017029e+00 -1.350626e+01 108 117 124
-4.737983e+00 -4.038821e+00 -1.358820e+01 101 109 117
-4.737983e+00 -4.038821e+00 -1.358820e+01 101 109 117
-5.816804e+00 -4.019876e+00 -1.394081e+01 106 108 121
1.534468e+00 -1.635922e+00 -5.755948e+00 183 151 143
1.675032e+00 -1.555715e+00 -5.648918e+00 50 35 31
1.415862e+00 -1.565099e+00 -5.752889e+00 135 92 58
1.121113e+00 -1.596090e+00 -5.877538e+00 201 170 146
5.684607e-01 -1.628401e+00 -6.097519e+00 183 151 131
3.465648e-01 -1.635376e+00 -6.188650e+00 177 140 138
5.488681e-01 -1.612401e+00 -6.106710e+00 150 95 51
1.430913e+00 -1.518221e+00 -5.749475e+00 224 195 170
1.398998e+00 -1.522829e+00 -5.776678e+00 228 197 176
1.107871e+00 -1.541576e+00 -5.858837e+00 228 194 149
1.184737e+00 -1.535272e+00 -5.840299e+00 197 180 160
6.358049e-01 -1.565982e+00 -6.064577e+00 174 131 99
3.363185e-01 -1.536957e+00 -6.186603e+00 244 215 190
3.363185e-01 -1.536957e+00 -6.186603e+00 244 215 190
4.011124e-01 -1.525002e+00 -6.187013e+00 164 139 142
3.696847e-01 -1.526068e+00 -6.198684e+00 146 126 138
2.959087e-01 -1.528018e+00 -6.230744e+00 167 146 151
8.749080e-01 -1.459703e+00 -6.052433e+00 142 102 90
1.830487e-01 -1.510930e+00 -6.282414e+00 190 161 153
-9.844102e+00 -4.036164e+00 -1.786529e+01 93 84 85
1.809069e+00 -1.370769e+00 -5.722196e+00 36 31 38
6.030150e-02 -1.497460e+00 -6.374462e+00 127 124 127
7.941381e-01 -1.405784e+00 -6.141887e+00 181 127 66
9.450807e-01 -1.380768e+00 -6.059680e+00 107 52 36
-1.460161e+00 -2.903955e+00 -1.416313e+01 145 151 167
-1.362792e+00 -2.894941e+00 -1.415678e+01 155 156 169
-2.171083e+00 -2.918536e+00 -1.450884e+01 130 142 164
1.629781e+00 -1.251667e+00 -5.741655e+00 143 78 39
-4.082583e+00 -3.048492e+00 -1.528231e+01 123 117 124
1.774239e+00 -1.208444e+00 -5.666920e+00 138 101 93
-5.756797e+00 -3.135281e+00 -1.599063e+01 136 124 134
-5.023744e+00 -3.051864e+00 -1.566967e+01 119 129 144
1.115669e+00 -1.206814e+00 -5.949239e+00 183 154 148
1.550444e+00 -1.166784e+00 -5.781735e+00 178 143 137
-2.399351e+00 -2.988189e+00 -1.675510e+01 78 88 93
3.865299e-01 -1.188891e+00 -6.289128e+00 150 95 69
6.320627e-02 -1.211507e+00 -6.410654e+00 140 120 110
-2.613029e-01 -8.743169e-01 -6.332111e+00 29 45 60
-1.521298e+00 -1.982330e+00 -1.626586e+01 145 124 124
-3.038880e-01 -7.787537e-01 -6.343148e+00 76 94 118
-3.414636e+00 -2.037951e+00 -1.703771e+01 121 130 147
2.072287e+00 -6.020735e-01 -5.347640e+00 10 14 17
2.123856e+00 -3.407307e-01 -5.406344e+00 77 89 107
-1.934360e+00 -1.223302e+00 -1.869125e+01 77 78 86
2.298362e+00 -2.621372e-01 -5.523571e+00 50 35 32
6.490652e-01 -4.272857e-01 -8.579900e+00 120 74 38
-1.998468e+00 -1.049658e+00 -1.849159e+01 102 117 130
-1.145475e+00 -9.987497e-01 -1.822367e+01 131 143 161
-1.807432e+00 -3.268754e-01 -2.077330e+01 125 129 133
-3.179074e+00 -3.330228e-01 -2.128517e+01 82 90 92
2.176929e+00 1.715245e-01 -5.555003e+00 10 160 152
-1.767691e+00 -9.124919e-02 -2.052497e+01 94 98 110
2.047642e+00 4.135187e-01 -5.680401e+00 47 25 27
1.397218e+00 1.731924e+00 -2.369964e+01 87 87 95
6.379239e+00 7.263883e+00 -4.089089e+01 166 161 156
6.363108e+00 1.084729e+01 -4.164032e+01 100 95 75
6.887618e+00 1.181799e+01 -4.281714e+01 86 68 54
3.709928e+00 1.206498e+01 -4.264739e+01 168 157 137
4.019705e+00 1.250389e+01 -4.374710e+01 159 157 144
3.709833e+00 1.223476e+01 -4.266410e+01 161 152 136
6.173988e+00 1.237318e+01 -4.168068e+01 158 158 146
-2.193720e+00 -4.700953e+00 -1.047886e+01 102 99 124
-1.193945e+00 -4.535210e+00 -1.224470e+01 131 132 140
-5.578340e+00 -4.931464e+00 -1.364730e+01 73 72 83
-3.087199e-01 -2.223951e+00 -6.255371e+00 48 56 74
-1.952880e+00 -3.939978e+00 -1.247704e+01 121 140 159
-1.677578e+00 -3.784988e+00 -1.224682e+01 159 155 174
-2.334502e+00 -3.815012e+00 -1.247893e+01 134 147 161
-2.215654e+00 -3.803822e+00 -1.245064e+01 156 161 181
-2.583878e+00 -3.745751e+00 -1.269964e+01 158 165 173
-3.664728e+00 -3.850441e+00 -1.305953e+01 132 138 167
-4.626292e+00 -3.973656e+00 -1.347022e+01 117 116 122
-5.642526e+00 -4.032964e+00 -1.394054e+01 97 96 104
1.375713e+00 -1.648010e+00 -5.827777e+00 155 119 108
5.578427e-01 -1.667894e+00 -6.124931e+00 83 41 24
5.954537e-02 -1.725839e+00 -6.364572e+00 23 23 28
1.317592e+00 -1.582260e+00 -5.799149e+00 204 168 134
1.817206e+00 -1.503620e+00 -5.582594e+00 204 183 171
1.385542e-01 -1.664773e+00 -6.276822e+00 117 75 59
5.258533e-01 -1.616320e+00 -6.121735e+00 130 85 56
5.258533e-01 -1.616320e+00 -6.121735e+00 130 85 56
5.707703e-01 -1.597492e+00 -6.078893e+00 247 212 182
5.855607e-01 -1.564710e+00 -6.083033e+00 216 181 145
-2.699529e-02 -1.616110e+00 -6.313791e+00 16 19 26
7.268525e-01 -1.535947e+00 -6.035504e+00 159 125 115
3.077390e-01 -1.581000e+00 -6.221132e+00 216 181 148
3.795686e-02 -1.594689e+00 -6.301634e+00 135 80 74
5.926637e-01 -1.537995e+00 -6.087641e+00 174 131 102
5.926637e-01 -1.537995e+00 -6.087641e+00 174 131 102
8.671925e-01 -1.505662e+00 -5.966524e+00 217 188 169
7.206541e-01 -1.526511e+00 -6.041283e+00 237 215 194
8.945206e-03 -1.524659e+00 -6.343452e+00 159 159 170
1.709907e+00 -1.385900e+00 -5.767087e+00 217 185 183
1.709907e+00 -1.385900e+00 -5.767087e+00 217 185 183
1.125995e+00 -1.430898e+00 -5.991034e+00 205 176 162
6.428976e-01 -1.454888e+00 -6.176880e+00 153 108 111
1.094759e+00 -1.380050e+00 -6.013777e+00 127 78 57
6.956001e-01 -1.414274e+00 -6.179618e+00 139 78 49
1.767518e+00 -1.222635e+00 -5.663238e+00 194 140 102
3.399472e-01 -1.324015e+00 -6.247526e+00 187 134 90
1.772531e+00 -1.187269e+00 -5.679083e+00 118 106 118
9.732718e-01 -1.240130e+00 -5.994657e+00 151 116 103
1.505038e-01 -1.307307e+00 -6.314999e+00 223 183 153
4.555421e-02 -1.304680e+00 -6.360079e+00 131 71 43
1.752358e+00 -1.145741e+00 -5.712506e+00 202 186 173
8.817295e-01 -1.211359e+00 -6.052603e+00 240 225 217
-4.474835e+00 -4.237517e+00 -2.357784e+01 145 146 151
5.416340e-01 -1.195162e+00 -6.210312e+00 201 153 105
5.416340e-01 -1.195162e+00 -6.210312e+00 201 153 105
4.819487e-01 -1.197048e+00 -6.239657e+00 210 175 125
5.198389e-01 -1.190821e+00 -6.235827e+00 237 211 184
2.615093e-01 -1.182908e+00 -6.393372e+00 157 106 74
1.941954e+00 -9.134883e-01 -5.401683e+00 52 66 79
-2.740372e+00 -2.075557e+00 -1.675734e+01 134 125 131
-2.845003e+00 -2.078003e+00 -1.685408e+01 128 115 122
-3.045917e-01 -5.872724e-01 -6.214399e+00 41 53 75
3.952238e-01 -4.614584e-01 -8.565591e+00 134 83 38
-3.922373e-01 -3.444767e-01 -6.554137e+00 221 221 226
-2.988639e-01 -3.383584e-01 -6.531526e+00 127 120 124
5.487542e-01 -9.356690e-01 -1.744090e+01 146 153 168
2.091583e+00 -9.172700e-02 -5.546705e+00 133 131 116
2.236333e+00 1.188240e-01 -5.559244e+00 110 128 131
-3.012301e-01 2.429650e-01 -6.513860e+00 95 58 51
-4.176872e-01 2.430140e-01 -6.660814e+00 254 231 213
-1.891677e-01 2.706808e-01 -6.660562e+00 60 50 45
-1.980079e-01 2.802082e-01 -6.657836e+00 236 204 171
2.050443e+00 4.029923e-01 -5.660239e+00 176 191 223
-1.204471e+00 -4.072180e+00 -1.227589e+01 123 123 123
-9.969554e-01 -3.725284e+00 -1.195107e+01 130 138 162
-2.359865e+00 -3.731517e+00 -1.260381e+01 155 168 176
4.707743e-01 -1.687309e+00 -6.168569e+00 179 165 167
1.136500e+00 -1.591083e+00 -5.868443e+00 196 166 155
1.114448e+00 -1.585800e+00 -5.885587e+00 101 67 58
1.826266e+00 -1.502332e+00 -5.575841e+00 53 35 43
1.094960e-01 -1.647092e+00 -6.297297e+00 133 113 113
1.794541e+00 -1.457964e+00 -5.590269e+00 207 172 140
4.550510e-01 -1.587891e+00 -6.137838e+00 142 102 98
6.087700e-01 -1.562883e+00 -6.075575e+00 226 190 147
4.589521e-01 -1.565647e+00 -6.129937e+00 158 106 89
1.099657e+00 -1.493949e+00 -5.880656e+00 243 226 201
1.676785e+00 -1.443425e+00 -5.684388e+00 215 186 182
-8.837316e-03 -1.562025e+00 -6.319933e+00 187 163 160
1.489700e+00 -1.430100e+00 -5.797827e+00 122 85 76
9.115488e-01 -1.466062e+00 -6.018004e+00 212 181 143
-1.934216e-03 -1.545016e+00 -6.350190e+00 166 171 174
1.027616e+00 -1.455400e+00 -5.990284e+00 153 112 91
3.624425e-02 -1.516743e+00 -6.350783e+00 124 94 92
1.208625e+00 -1.408633e+00 -5.957562e+00 233 219 214
1.406734e+00 -1.377532e+00 -5.889796e+00 104 60 35
6.964885e-01 -1.402161e+00 -6.174716e+00 178 116 72
1.574574e+00 -1.229434e+00 -5.747640e+00 164 115 85
9.180858e-01 -1.275652e+00 -6.006760e+00 153 109 74
1.634445e+00 -1.211337e+00 -5.723335e+00 125 87 74
1.387988e+00 -1.219236e+00 -5.820508e+00 221 192 175
7.888274e-01 -1.264590e+00 -6.059716e+00 190 147 111
1.229554e-01 -1.314728e+00 -6.331287e+00 92 53 34
1.285189e-01 -1.306844e+00 -6.323023e+00 231 198 182
3.782042e-02 -1.320250e+00 -6.380377e+00 189 170 165
9.648981e-01 -1.231173e+00 -5.991427e+00 234 212 205
6.435210e-02 -1.293319e+00 -6.348972e+00 234 188 177
1.110654e+00 -1.165780e+00 -5.985544e+00 158 121 96
5.139297e-01 -1.198921e+00 -6.215397e+00 182 135 90
4.584130e-01 -1.200688e+00 -6.263528e+00 226 186 134
5.497167e-01 -1.184518e+00 -6.222709e+00 229 196 145
6.736004e-01 -1.172661e+00 -6.192405e+00 163 124 83
6.531784e-01 -1.170375e+00 -6.196172e+00 159 117 74
-2.100822e-01 -1.131883e+00 -6.318961e+00 16 28 40
-4.402316e-01 -4.061277e-01 -6.503686e+00 74 43 41
-3.367026e-01 -3.523424e-01 -6.552376e+00 171 170 183
-3.773345e-01 -3.478491e-01 -6.558590e+00 214 209 216
-3.811328e-01 -3.367233e-01 -6.558535e+00 179 174 184
-3.811328e-01 -3.367233e-01 -6.558535e+00 179 174 184
2.157158e+00 -1.024388e-01 -5.517272e+00 153 172 173
2.093217e+00 -8.503184e-02 -5.541072e+00 186 255 255
6.420344e-01 -1.548549e+00 -6.819414e+00 184 127 90
-3.250383e+00 -3.613010e+00 -1.506113e+01 186 189 198
-3.250383e+00 -3.613010e+00 -1.506113e+01 186 189 198
-3.771973e+00 -2.976204e+00 -1.496080e+01 119 124 142
-6.178614e+00 -3.179808e+00 -1.633773e+01 102 111 118
-6.178614e+00 -3.179808e+00 -1.633773e+01 102 111 118
7.432243e+00 1.018039e+01 -2.733995e+01 60 75 88
-7.904693e+00 -1.104439e+00 -2.364341e+01 163 158 157
-7.904693e+00 -1.104439e+00 -2.364341e+01 163 158 157
-3.203599e-01 7.466800e-02 -6.551972e+00 74 51 45
2.227669e+00 3.125408e-01 -5.739094e+00 84 57 50
-2.816718e+00 -4.661127e+00 -1.288571e+01 179 182 191
1.739238e+00 -1.174312e+00 -5.688060e+00 203 188 198
-2.488322e+00 -3.963132e+00 -1.269773e+01 87 104 120
-2.815403e+00 -4.051876e+00 -1.299774e+01 104 120 143
-5.555951e+00 -2.626730e+00 -1.810048e+01 183 184 190
7.586818e+00 1.640279e+00 -2.557712e+01 8 9 11
-3.436749e+00 -4.908209e+00 -1.110577e+01 69 83 94
-4.142109e+00 -4.965904e+00 -1.142585e+01 54 63 72
-4.142109e+00 -4.965904e+00 -1.142585e+01 54 63 72
-3.566157e+00 -4.864247e+00 -1.312813e+01 96 108 122
-5.057706e+00 -4.135509e+00 -1.383315e+01 60 64 75
-5.642748e+00 -4.145502e+00 -1.400208e+01 31 34 39
-4.572921e+00 -3.209229e+00 -1.554512e+01 40 43 50
-6.315057e-01 -1.000326e+00 -6.706537e+00 54 58 65
2.048159e+00 -1.675017e-01 -5.599988e+00 214 186 162
1.335206e+01 4.975502e+00 -2.516909e+01 104 125 154
2.991059e+01 1.725739e+01 -5.497553e+01 175 137 64
1.333882e+01 9.082998e+00 -2.501774e+01 121 103 83
1.375507e+01 9.066077e+00 -2.473346e+01 116 100 78
7.853420e+00 1.054221e+01 -2.773436e+01 12 12 10
2.409126e+01 1.766394e+01 -4.250734e+01 116 114 90
2.409126e+01 1.766394e+01 -4.250734e+01 116 114 90
-2.252243e+00 -4.750920e+00 -1.251918e+01 115 134 148
-3.214543e+00 -4.831832e+00 -1.297329e+01 99 113 124
-2.523910e+00 -4.702207e+00 -1.280030e+01 184 186 201
-5.497774e+00 -4.930176e+00 -1.383148e+01 90 97 107
-1.366517e+00 -4.151968e+00 -1.249057e+01 189 189 199
-6.233354e+00 -3.944584e+00 -1.451271e+01 67 72 78
-2.039354e+00 -3.785457e+00 -1.459923e+01 189 195 207
-2.234790e+00 -1.441716e+00 -1.893410e+01 184 179 175
2.402549e+00 -1.913774e-01 -5.576726e+00 48 42 23
-7.496374e+00 1.842814e-01 -2.567074e+01 150 141 135
1.254723e+01 4.974700e+00 -2.555285e+01 120 140 169
2.212326e+01 1.251736e+01 -5.354884e+01 217 198 171
-8.912130e+00 6.686707e+00 -2.237112e+01 159 161 158
2.188751e+01 2.122544e+01 -5.415638e+01 173 156 128
2.163511e+01 2.094543e+01 -5.224972e+01 87 67 49
2.482423e+01 2.206351e+01 -5.388998e+01 71 50 33
-5.134219e+00 -4.851022e+00 -1.385519e+01 174 177 184
-5.745400e+00 -4.919660e+00 -1.419709e+01 169 169 177
-6.375278e+00 -4.387379e+00 -1.446459e+01 165 165 167
4.860001e-01 -1.616774e+00 -6.119753e+00 155 127 113
-3.451783e+00 -3.919256e+00 -1.533010e+01 184 186 198
1.673463e-01 -1.477269e+00 -6.422440e+00 138 117 126
1.485317e+00 -1.223205e+00 -5.773822e+00 209 174 132
2.284928e+00 -4.424832e-01 -5.727957e+00 31 35 44
-3.032945e+00 -1.474796e+00 -1.916294e+01 185 187 186
2.121944e+00 -2.305821e-01 -5.504732e+00 86 57 53
-3.949585e-01 2.883158e-01 -6.663661e+00 255 232 203
-3.949585e-01 2.883158e-01 -6.663661e+00 255 232 203
1.982059e+00 2.884394e-01 -5.782840e+00 217 189 160
2.105779e+00 3.475065e-01 -5.503692e+00 146 110 98
-2.602054e+00 1.258891e+01 -4.224227e+01 107 98 89
-4.245966e+00 1.298176e+01 -3.852805e+01 107 98 91
-4.245966e+00 1.298176e+01 -3.852805e+01 107 98 91
-1.262690e+00 -4.643452e+00 -1.224257e+01 178 182 194
-3.517817e+00 -4.814483e+00 -1.267399e+01 102 114 128
-3.517817e+00 -4.814483e+00 -1.267399e+01 102 114 128
-4.331032e+00 -4.804457e+00 -1.350851e+01 175 175 186
-1.875661e+00 -3.850586e+00 -1.240912e+01 54 62 80
-2.508991e+00 -3.807113e+00 -1.247797e+01 57 69 79
1.275948e+00 -1.544242e+00 -5.806974e+00 188 154 131
-3.458858e+00 -3.923100e+00 -1.531247e+01 181 183 195
-6.964595e+00 -3.161177e+00 -1.714282e+01 81 86 93
-8.243397e+00 -3.193267e+00 -1.918668e+01 162 158 163
-8.467795e+00 -2.291740e+00 -1.916988e+01 131 139 143
2.250962e+00 1.341225e-01 -5.560665e+00 97 99 85
-1.741739e-01 2.447913e-01 -6.639966e+00 18 21 19
2.023776e+00 2.629533e-01 -5.666714e+00 220 161 105
2.079116e+00 4.025552e-01 -5.617944e+00 227 165 112
2.331516e+00 2.177409e+00 -1.346024e+01 246 208 176
3.855648e+00 6.917519e+00 -4.237950e+01 152 147 141
1.360385e+01 5.052226e+00 -2.485831e+01 89 107 131
1.469050e+01 5.052399e+00 -2.411111e+01 73 95 119
8.247948e+00 6.476882e+00 -2.773272e+01 158 154 151
-1.120917e+00 1.253744e+01 -4.648981e+01 97 84 68
-1.120917e+00 1.253744e+01 -4.648981e+01 97 84 68
1.224375e+01 8.962997e+00 -2.487433e+01 124 107 85
1.279793e+01 9.157750e+00 -2.527421e+01 122 107 86
1.380033e+01 9.132107e+00 -2.459297e+01 113 98 77
1.245198e+01 9.598447e+00 -2.525731e+01 148 124 115
1.894505e+01 2.289996e+01 -5.398132e+01 174 154 121
-1.112001e+00 -4.659977e+00 -1.183301e+01 84 91 105
-1.866192e+00 -4.754306e+00 -1.229069e+01 87 95 109
-1.866192e+00 -4.754306e+00 -1.229069e+01 87 95 109
-3.662301e+00 -4.790715e+00 -1.265326e+01 116 125 139
-3.662301e+00 -4.790715e+00 -1.265326e+01 116 125 139
-2.627109e+00 -4.787802e+00 -1.278061e+01 100 109 124
-3.233120e+00 -4.820025e+00 -1.302413e+01 81 92 109
-3.779078e+00 -4.831184e+00 -1.321409e+01 79 86 101
-3.902212e+00 -4.857781e+00 -1.331088e+01 83 95 111
-4.435407e+00 -4.888611e+00 -1.355527e+01 88 92 98
-4.792894e+00 -4.876127e+00 -1.358375e+01 82 86 98
1.471667e+00 -1.446663e+00 -5.795347e+00 190 165 134
1.284697e+00 -1.440287e+00 -5.915859e+00 174 140 123
5.237505e-01 -1.501980e+00 -6.160210e+00 201 167 141
-4.695666e+00 -3.969922e+00 -1.574227e+01 174 177 186
-8.949707e+00 -4.198916e+00 -1.751892e+01 153 152 157
1.664115e+00 -1.198103e+00 -5.713044e+00 166 125 122
-2.173117e+00 -3.182215e+00 -1.466780e+01 57 61 69
-5.496712e+00 -3.170306e+00 -1.586287e+01 25 28 31
-1.903531e+00 -2.212944e+00 -1.659739e+01 39 43 52
-8.238918e+00 -2.642840e+00 -1.928217e+01 161 157 156
-3.362959e+00 -2.107060e+00 -1.701146e+01 23 30 38
1.881121e+00 -3.756886e-01 -5.566822e+00 25 30 35
1.881121e+00 -3.756886e-01 -5.566822e+00 25 30 35
2.096155e+00 -1.944442e-01 -5.579022e+00 154 115 100
2.061118e+00 -6.520351e-02 -5.561391e+00 189 249 255
-9.956262e-02 -1.031410e-01 -6.616917e+00 219 189 155
-9.916074e+00 -3.989997e-01 -1.877909e+01 137 145 155
7.839339e+00 1.375054e+00 -2.654188e+01 39 45 49
2.069425e+00 3.693503e-01 -5.639088e+00 217 168 124
2.242796e+00 1.823014e+00 -2.341865e+01 58 62 74
1.404526e+00 1.916772e+00 -2.345576e+01 53 56 61
3.705292e+00 6.585778e+00 -4.270007e+01 7 8 3
3.705292e+00 6.585778e+00 -4.270007e+01 7 8 3
9.303560e+00 5.516734e+00 -2.714772e+01 173 176 183
1.470284e+01 5.028257e+00 -2.375313e+01 74 90 113
1.267287e+01 5.775470e+00 -2.498149e+01 68 73 93
7.927692e+00 6.113077e+00 -2.691273e+01 17 17 15
1.311168e+01 5.776658e+00 -2.475962e+01 54 62 73
3.765069e+00 9.909404e+00 -4.297434e+01 150 142 129
5.589362e+00 1.170972e+01 -4.185695e+01 104 85 71
6.836981e+00 1.243553e+01 -4.286895e+01 106 91 68
2.957205e+01 1.742394e+01 -5.500272e+01 182 143 77
2.358991e+01 2.142009e+01 -5.206231e+01 56 33 20
1.849650e+01 2.324255e+01 -5.510626e+01 173 153 120
1.846734e+01 2.343843e+01 -5.476042e+01 74 58 39
-3.939818e+00 -4.720720e+00 -1.154202e+01 87 91 100
-1.383589e+00 -4.706088e+00 -1.203040e+01 84 91 106
-1.383589e+00 -4.706088e+00 -1.203040e+01 84 91 106
-1.728582e+00 -4.714990e+00 -1.214512e+01 84 93 111
-1.503587e+00 -4.718014e+00 -1.231704e+01 103 109 125
-2.451352e+00 -4.773319e+00 -1.247421e+01 85 94 109
-2.015954e+00 -4.755284e+00 -1.253192e+01 93 104 122
-2.093893e+00 -3.852072e+00 -1.245221e+01 36 44 57
1.422692e+00 -1.584760e+00 -5.751444e+00 203 158 125
6.318603e-01 -1.649937e+00 -6.078309e+00 113 64 43
4.969068e-01 -1.653611e+00 -6.114383e+00 106 58 42
1.611660e+00 -1.525954e+00 -5.661976e+00 211 174 135
1.353417e+00 -1.548092e+00 -5.774258e+00 219 187 155
-1.591086e+00 -3.795326e+00 -1.391932e+01 133 137 149
-8.157605e+00 -4.159770e+00 -1.496291e+01 37 38 40
1.544971e+00 -1.460090e+00 -5.726929e+00 170 134 122
-2.370542e+00 -3.894639e+00 -1.468235e+01 105 110 122
-2.768354e+00 -2.328804e+00 -1.693899e+01 162 158 154
-3.067911e-01 -3.855072e-01 -6.492130e+00 129 100 92
2.146216e+00 -1.959689e-01 -5.553860e+00 231 232 244
-2.035425e+00 -2.917809e-01 -2.090256e+01 97 107 116
2.194625e+00 1.704834e-01 -5.540777e+00 115 223 223
1.231739e+01 1.828041e+00 -2.487427e+01 73 88 109
8.211226e+00 2.045736e+00 -2.661985e+01 7 9 8
1.383906e+00 1.746505e+00 -2.357825e+01 86 92 98
8.169825e+00 2.216363e+00 -2.651200e+01 8 8 10
8.116535e+00 3.376192e+00 -2.666422e+01 27 36 43
2.830604e+00 6.591285e+00 -4.124121e+01 174 175 182
2.830604e+00 6.591285e+00 -4.124121e+01 174 175 182
2.761475e+00 8.035157e+00 -4.142924e+01 161 159 165
2.699114e+00 8.744548e+00 -4.134570e+01 143 140 145
2.699114e+00 8.744548e+00 -4.134570e+01 143 140 145
2.711439e+00 9.412173e+00 -4.116877e+01 148 149 154
2.711439e+00 9.412173e+00 -4.116877e+01 148 149 154
1.468566e+01 1.163038e+01 -3.099703e+01 155 133 131
7.462863e+00 1.034025e+01 -2.761224e+01 107 127 150
1.925647e+01 2.473473e+01 -5.564764e+01 171 157 122
-2.672916e+00 -4.871815e+00 -1.082188e+01 96 113 126
-2.244040e+00 -4.762458e+00 -1.239909e+01 89 98 114
-2.048706e+00 -4.766230e+00 -1.246571e+01 141 149 160
-1.758536e+00 -4.722143e+00 -1.239127e+01 88 98 113
-1.914779e+00 -4.744887e+00 -1.247498e+01 96 101 119
-2.416982e+00 -4.777057e+00 -1.256863e+01 134 146 162
-2.416982e+00 -4.777057e+00 -1.256863e+01 134 146 162
-2.564313e+00 -4.808794e+00 -1.271573e+01 134 151 167
-5.959132e+00 -4.910558e+00 -1.353522e+01 134 135 142
-1.714978e+00 -4.026416e+00 -1.247727e+01 69 77 83
-3.843677e+00 -4.142138e+00 -1.333609e+01 58 63 61
1.476201e+00 -1.540202e+00 -5.735752e+00 219 179 139
1.137909e+00 -1.473703e+00 -5.893973e+00 220 195 179
1.137909e+00 -1.473703e+00 -5.893973e+00 220 195 179
1.112296e+00 -1.478799e+00 -5.917216e+00 220 197 183
4.955585e-01 -1.531112e+00 -6.120020e+00 242 212 179
-2.665534e+00 -3.870618e+00 -1.484681e+01 186 186 196
