ply
format ascii 1.0
element face 0
property list uchar int vertex_indices
element vertex 913
property float x
property float y
property float z
property uchar diffuse_red
property uchar diffuse_green
property uchar diffuse_blue
end_header
-1.348056e-01 -7.773308e-01 -6.127067e+00 61 77 94
-1.689323e-01 -7.777121e-01 -6.125659e+00 49 66 84
-1.689323e-01 -7.777121e-01 -6.125659e+00 49 66 84
2.348160e+00 -5.404811e-01 -5.061132e+00 14 22 30
2.350839e+00 -5.414872e-01 -5.067428e+00 14 22 30
2.071155e+00 -4.155789e-01 -5.136673e+00 54 66 82
2.178300e+00 -4.043163e-01 -5.061189e+00 67 85 105
2.182726e+00 -4.055532e-01 -5.072915e+00 67 85 105
-5.033829e-01 -4.247563e-01 -6.080564e+00 126 141 174
-6.860668e-01 -3.459046e-01 -6.583171e+00 64 67 72
2.303086e+00 -6.905639e-02 -5.601815e+00 37 25 21
2.283145e+00 8.250748e-03 -5.319774e+00 126 89 70
6.626827e-01 -1.650495e-01 -8.782173e+00 183 135 87
2.368940e+00 1.191412e-01 -5.239054e+00 228 234 243
4.133529e-02 1.196734e-01 -6.536424e+00 156 127 104
-6.759560e-02 2.353692e-01 -6.452555e+00 163 128 98
2.492191e+00 4.093187e-01 -5.266160e+00 26 155 145
-4.922508e-01 4.408731e-01 -6.381588e+00 168 134 115
-4.000771e-01 5.233769e-01 -6.450000e+00 165 130 111
3.300223e+00 8.895003e-01 -1.555354e+01 81 99 125
3.325816e+00 9.785874e-01 -1.570072e+01 88 106 128
3.314515e+00 1.110390e+00 -1.565675e+01 99 114 143
3.314515e+00 1.110390e+00 -1.565675e+01 99 114 143
8.745476e+00 1.999741e+00 -2.753492e+01 59 65 78
2.313401e+00 7.069553e-01 -5.365685e+00 46 37 38
3.078759e+00 1.278646e+00 -1.509878e+01 86 107 132
3.372761e+00 1.401961e+00 -1.576254e+01 27 38 51
3.313906e+00 1.469476e+00 -1.575138e+01 102 116 143
3.276579e+00 1.903223e+00 -1.567355e+01 96 110 133
4.033230e+00 3.087069e+00 -1.767308e+01 71 86 106
2.581106e+00 2.536227e+00 -1.379569e+01 154 109 76
2.810764e+00 2.861205e+00 -1.441736e+01 141 96 62
3.064991e+00 3.483189e+00 -1.531791e+01 136 92 62
4.281679e+00 4.716972e+00 -1.821232e+01 70 44 27
-1.782040e+00 -4.895745e+00 -1.053445e+01 137 146 157
-1.831385e+00 -4.899612e+00 -1.055200e+01 144 154 166
-2.702312e+00 -5.121960e+00 -1.298464e+01 140 153 170
-1.347645e+00 -4.012860e+00 -1.237140e+01 61 71 88
-1.102938e+00 -3.943322e+00 -1.224113e+01 127 139 164
-1.099667e+00 -3.912282e+00 -1.225452e+01 141 151 184
-2.637994e+00 -4.103140e+00 -1.292745e+01 60 73 88
-4.407413e+00 -4.369270e+00 -1.375823e+01 103 111 122
-3.519419e+00 -4.079976e+00 -1.325662e+01 136 143 165
1.213914e+00 -1.574067e+00 -5.633833e+00 209 172 146
8.410740e-01 -1.592828e+00 -5.755415e+00 166 131 128
1.944431e+00 -1.472982e+00 -5.330979e+00 212 175 138
9.359437e-01 -1.536613e+00 -5.718576e+00 170 136 109
1.550561e-01 -1.637647e+00 -6.070402e+00 177 143 137
5.508266e-01 -1.581627e+00 -5.901354e+00 222 188 178
3.142106e-02 -1.641893e+00 -6.104157e+00 133 95 86
4.570393e-01 -1.578057e+00 -5.916239e+00 241 201 200
4.563235e-01 -1.576002e+00 -5.909514e+00 241 201 200
1.491540e+00 -1.440191e+00 -5.530876e+00 214 194 179
9.500142e-01 -1.495187e+00 -5.741013e+00 176 139 111
9.409132e-01 -1.475986e+00 -5.783160e+00 166 137 128
-3.268806e+00 -4.150006e+00 -1.542936e+01 90 97 110
2.634219e-02 -1.549820e+00 -6.118737e+00 128 85 84
7.725353e-01 -1.407963e+00 -5.924975e+00 176 139 135
1.576626e+00 -1.284191e+00 -5.595399e+00 96 44 23
1.776471e+00 -1.172706e+00 -5.459547e+00 127 62 31
1.323099e+00 -1.156645e+00 -5.639284e+00 149 115 106
2.861799e-01 -1.248680e+00 -6.048217e+00 117 67 61
1.044462e+00 -1.163626e+00 -5.759761e+00 191 166 153
2.835480e-01 -1.234377e+00 -6.059182e+00 181 143 119
4.976546e-01 -1.200973e+00 -5.988920e+00 160 119 121
9.239271e-02 -1.220170e+00 -6.128515e+00 217 196 191
2.247550e-01 -1.219096e+00 -6.193718e+00 243 240 255
1.431699e-01 -1.192308e+00 -6.135606e+00 216 213 221
1.554639e+00 -1.041543e+00 -5.634869e+00 171 131 96
-2.988278e+00 -3.117278e+00 -1.518986e+01 157 159 175
2.024065e+00 -9.994988e-01 -5.477435e+00 128 110 104
9.081965e-01 -1.094140e+00 -5.941252e+00 195 164 128
4.082287e-01 -1.096240e+00 -6.171725e+00 139 99 72
-5.882971e+00 -3.287942e+00 -1.638043e+01 142 137 147
-2.211468e+00 -3.103437e+00 -1.719078e+01 94 94 103
-4.460283e-01 -8.613705e-01 -6.083888e+00 31 39 55
-5.940717e-01 -8.161686e-01 -6.224084e+00 16 22 25
-3.417288e-01 -6.752673e-01 -6.159125e+00 24 35 53
2.234812e+00 -4.620075e-01 -5.049112e+00 60 74 95
2.234812e+00 -4.620075e-01 -5.049112e+00 60 74 95
-2.184232e+00 -2.037288e+00 -1.702295e+01 165 164 169
-2.356541e+00 -2.050162e+00 -1.709248e+01 159 167 177
1.990192e+00 -4.296567e-01 -5.276763e+00 49 57 64
-2.356811e-01 -4.577396e-01 -5.999634e+00 55 57 68
2.176782e+00 -1.748272e-01 -5.154497e+00 83 102 128
2.234797e+00 -1.505776e-01 -5.120064e+00 112 130 158
2.387746e+00 -1.408426e-01 -5.079629e+00 77 89 107
-4.407070e-01 2.524836e-01 -6.405975e+00 142 238 239
1.725500e+00 7.612681e-01 -1.109912e+01 149 98 54
1.830886e+00 1.155634e+00 -2.189690e+01 129 124 134
4.093641e+00 1.416251e+00 -1.753642e+01 77 95 116
1.738558e+00 1.371139e+00 -1.154709e+01 184 141 96
3.575138e+00 4.229794e+00 -1.668903e+01 146 108 75
-1.214564e+00 -4.883833e+00 -1.091613e+01 66 72 88
-1.790082e+00 -5.046935e+00 -1.270988e+01 105 109 127
-4.092255e-01 -2.333962e+00 -6.050070e+00 58 66 81
-1.311314e+00 -4.376026e+00 -1.258464e+01 122 120 122
1.536570e+00 -3.557073e+00 -1.070780e+01 76 82 91
-2.171935e+00 -4.192523e+00 -1.284381e+01 124 147 163
-2.658448e+00 -4.070525e+00 -1.291052e+01 136 143 161
-2.658522e+00 -4.050086e+00 -1.293708e+01 112 118 144
-5.867294e+00 -4.266639e+00 -1.423584e+01 119 111 128
2.534320e-01 -1.690763e+00 -6.063229e+00 149 120 116
1.786533e+00 -1.482446e+00 -5.377756e+00 117 82 80
1.561670e+00 -1.499979e+00 -5.446025e+00 218 175 137
1.633198e+00 -1.502039e+00 -5.458034e+00 210 168 126
1.063896e-01 -1.681972e+00 -6.114273e+00 79 40 23
3.743341e-01 -1.619402e+00 -5.939381e+00 127 70 57
7.178154e-01 -1.552503e+00 -5.819776e+00 225 190 155
7.171809e-01 -1.551259e+00 -5.816032e+00 225 190 155
1.138701e+00 -1.495539e+00 -5.643954e+00 229 200 186
3.673257e-02 -1.612359e+00 -6.073635e+00 81 40 38
1.161645e-01 -1.602802e+00 -6.060211e+00 158 120 104
1.951129e+00 -1.394399e+00 -5.380610e+00 192 174 167
9.531576e-01 -1.470156e+00 -5.723609e+00 231 207 198
5.012567e-01 -1.473341e+00 -5.947459e+00 209 188 176
1.249270e+00 -1.409049e+00 -5.713861e+00 154 121 96
5.222698e-02 -1.507782e+00 -6.089245e+00 191 190 204
5.243147e-02 -1.508031e+00 -6.091591e+00 191 190 204
8.820912e-01 -1.415931e+00 -5.844566e+00 157 114 108
2.426548e-01 -1.459326e+00 -6.075377e+00 124 96 92
1.214120e+00 -1.341138e+00 -5.776101e+00 185 151 119
3.908682e-01 -1.424017e+00 -6.091872e+00 143 131 145
5.716125e-01 -1.380028e+00 -6.034087e+00 146 115 107
4.978148e-01 -1.378255e+00 -6.083896e+00 184 158 148
1.109381e+00 -1.209594e+00 -5.727453e+00 151 105 70
2.018837e+00 -1.089047e+00 -5.381793e+00 211 198 201
2.018837e+00 -1.089047e+00 -5.381793e+00 211 198 201
4.021884e-01 -1.209115e+00 -5.983500e+00 213 181 174
-2.861819e+00 -3.344777e+00 -1.534678e+01 86 103 118
4.641070e-01 -1.199746e+00 -6.003548e+00 121 96 102
4.250325e-01 -1.201701e+00 -6.007916e+00 126 98 98
8.334634e-01 -1.156513e+00 -5.875719e+00 199 179 183
9.887797e-01 -1.131172e+00 -5.793696e+00 240 225 217
8.811199e-02 -1.200335e+00 -6.164877e+00 248 242 254
1.312480e-01 -1.190455e+00 -6.173904e+00 122 109 113
6.763146e-01 -1.131006e+00 -5.932341e+00 182 137 103
-1.799608e+00 -3.052183e+00 -1.473999e+01 137 135 149
-2.110847e+00 -3.032059e+00 -1.467298e+01 119 121 133
1.067660e+00 -1.080365e+00 -5.812974e+00 191 154 112
5.388303e-01 -1.117887e+00 -6.005617e+00 210 175 125
-2.802201e+00 -3.067048e+00 -1.510529e+01 150 163 182
-3.819853e+00 -3.156981e+00 -1.552404e+01 138 138 154
1.125099e-01 -1.113572e+00 -6.261707e+00 135 126 114
1.490963e-01 -1.103479e+00 -6.311017e+00 112 81 63
-6.219192e+00 -3.254375e+00 -1.648559e+01 114 124 134
-2.029792e-01 -7.698645e-01 -6.123083e+00 124 143 156
-2.794485e-01 -7.698173e-01 -6.103287e+00 124 146 167
2.230727e+00 -5.516001e-01 -5.092222e+00 68 84 109
-3.234022e-01 -6.883258e-01 -6.135378e+00 76 92 117
-2.803612e-01 -6.552876e-01 -6.139276e+00 80 93 111
-3.776913e-01 -6.455461e-01 -6.126344e+00 64 79 98
2.268392e+00 -4.623279e-01 -5.054231e+00 58 71 87
2.339076e+00 -4.247618e-01 -4.992076e+00 116 117 112
2.339076e+00 -4.247618e-01 -4.992076e+00 116 117 112
-3.210711e+00 -2.101957e+00 -1.742005e+01 137 135 147
-1.861760e-01 -5.348482e-01 -6.066816e+00 57 69 80
-4.862529e-01 -4.343723e-01 -6.022557e+00 41 53 77
-4.862529e-01 -4.343723e-01 -6.022557e+00 41 53 77
-4.964013e-01 -4.154699e-01 -6.124559e+00 66 81 112
2.112777e+00 -1.733823e-01 -5.220891e+00 25 32 38
-8.863194e+00 -1.443988e+00 -2.183700e+01 110 106 102
-3.148664e-01 -1.668682e-01 -6.320028e+00 96 68 64
-1.886561e+00 -1.053448e+00 -1.904299e+01 167 171 186
2.502653e+00 -6.642916e-03 -5.259238e+00 162 126 99
2.241640e+00 6.697157e-02 -5.462337e+00 152 121 94
-7.274563e-01 2.509586e-02 -6.627763e+00 231 202 172
1.246539e+00 2.674899e-02 -9.844402e+00 139 98 66
-5.615723e-01 2.118933e-01 -6.566467e+00 214 176 140
-4.689203e-01 2.751537e-01 -6.273102e+00 87 81 79
-2.276909e-01 4.219900e-01 -6.429418e+00 191 156 121
-4.922596e-01 4.559534e-01 -6.494358e+00 162 130 112
-5.049868e-01 4.632974e-01 -6.470477e+00 255 236 205
-3.483290e-01 5.240940e-01 -6.392610e+00 146 107 90
1.732292e+00 1.162578e+00 -2.199943e+01 106 102 109
-1.069963e+00 -4.869395e+00 -1.067147e+01 68 77 93
-2.087668e+00 -4.896634e+00 -1.090766e+01 72 73 82
-1.245791e+00 -4.877030e+00 -1.091579e+01 64 73 88
-2.034331e+00 -4.922968e+00 -1.103742e+01 70 77 94
-2.392745e+00 -4.961149e+00 -1.131068e+01 62 75 93
-3.293015e+00 -4.289416e+00 -1.334182e+01 97 114 142
2.758440e-02 -1.900767e+00 -6.125573e+00 63 60 65
2.046721e+00 -1.538430e+00 -5.286361e+00 67 61 65
1.869352e+00 -1.526912e+00 -5.350611e+00 191 142 110
9.284998e-01 -1.652473e+00 -5.792446e+00 156 125 117
1.285381e+00 -1.588145e+00 -5.603413e+00 164 136 130
1.199601e+00 -1.584001e+00 -5.635560e+00 133 83 57
1.281917e+00 -1.560928e+00 -5.600753e+00 196 166 155
9.774472e-01 -1.577180e+00 -5.720738e+00 198 165 138
2.040741e+00 -1.444516e+00 -5.271566e+00 129 95 78
2.044170e+00 -1.447981e+00 -5.282507e+00 129 95 78
1.104348e+00 -1.543582e+00 -5.667564e+00 163 126 107
6.421495e-01 -1.556673e+00 -5.830897e+00 158 122 107
7.840714e-01 -1.522751e+00 -5.796006e+00 182 141 110
5.246493e-01 -1.540716e+00 -5.876091e+00 204 181 165
-1.520356e-02 -1.607658e+00 -6.102903e+00 141 134 144
8.005051e-01 -1.512441e+00 -5.793010e+00 243 213 191
2.341886e-01 -1.558668e+00 -6.001683e+00 168 131 124
4.036085e-01 -1.540576e+00 -5.942759e+00 142 101 100
4.042615e-01 -1.541529e+00 -5.946301e+00 142 101 100
3.741044e-01 -1.536552e+00 -5.948111e+00 177 120 103
3.602263e-01 -1.539696e+00 -5.964419e+00 179 129 107
-2.063464e+00 -4.059051e+00 -1.507878e+01 111 116 128
7.813577e-01 -1.478026e+00 -5.808762e+00 198 174 151
1.158844e+00 -1.428766e+00 -5.669833e+00 234 214 198
3.144068e-01 -1.498890e+00 -5.918141e+00 164 125 125
1.890615e-01 -1.513820e+00 -6.036162e+00 255 240 229
1.374964e-01 -1.516844e+00 -6.047716e+00 167 131 131
6.430683e-01 -1.456025e+00 -5.901229e+00 238 207 187
1.701881e+00 -1.360517e+00 -5.546069e+00 191 164 157
8.257587e-02 -1.491501e+00 -6.116595e+00 135 104 109
1.614828e+00 -1.340709e+00 -5.560117e+00 227 196 195
1.610572e+00 -1.351940e+00 -5.612479e+00 225 196 192
1.678133e+00 -1.305781e+00 -5.563740e+00 95 50 35
1.647432e+00 -1.305427e+00 -5.593566e+00 178 137 97
4.890283e-01 -1.386715e+00 -6.062583e+00 146 127 132
2.671650e-01 -1.403078e+00 -6.140326e+00 180 163 163
1.037388e+00 -1.310295e+00 -5.827095e+00 145 92 60
1.222598e+00 -1.222059e+00 -5.687411e+00 180 138 106
3.002944e-01 -1.287180e+00 -6.099439e+00 86 39 23
1.904167e+00 -1.123503e+00 -5.414666e+00 184 155 150
1.750393e+00 -1.131698e+00 -5.467901e+00 173 119 76
1.935959e+00 -1.109852e+00 -5.395520e+00 145 110 106
6.358247e-01 -1.212390e+00 -5.862948e+00 170 120 93
6.979141e-01 -1.188496e+00 -5.903762e+00 167 135 136
2.006565e+00 -1.049788e+00 -5.357607e+00 184 164 173
2.233359e-01 -1.214385e+00 -6.102531e+00 123 99 104
1.910323e+00 -1.057994e+00 -5.467703e+00 152 120 107
1.297770e-02 -1.218116e+00 -6.186204e+00 34 40 51
6.224998e-02 -1.212308e+00 -6.175230e+00 131 118 144
4.189320e-02 -1.206978e+00 -6.160449e+00 122 112 142
2.023772e+00 -1.036531e+00 -5.423035e+00 110 83 75
1.358561e-01 -1.202518e+00 -6.165495e+00 229 222 237
1.358561e-01 -1.202518e+00 -6.165495e+00 229 222 237
1.399725e+00 -1.081551e+00 -5.664690e+00 188 148 117
1.399725e+00 -1.081551e+00 -5.664690e+00 188 148 117
7.848253e-01 -1.109600e+00 -5.908955e+00 177 130 84
1.289424e-01 -1.155863e+00 -6.147241e+00 186 151 135
6.906032e-01 -1.111550e+00 -5.957716e+00 132 77 37
4.050106e-01 -1.114094e+00 -6.096492e+00 113 58 29
1.034435e+00 -1.064250e+00 -5.896066e+00 165 123 85
-3.809362e-01 -1.086498e+00 -6.107801e+00 67 84 106
-3.445483e-01 -9.455779e-01 -6.087290e+00 62 66 75
-4.224813e-01 -8.491781e-01 -6.056570e+00 49 60 98
2.213007e+00 -5.508643e-01 -5.095135e+00 65 81 103
2.281206e+00 -5.118403e-01 -5.080952e+00 61 75 94
-2.811219e-01 -6.545090e-01 -6.132343e+00 81 94 112
-3.886548e-01 -6.114787e-01 -6.153123e+00 125 141 166
-3.885789e-01 -6.115253e-01 -6.154456e+00 125 141 166
-3.017419e+00 -2.061719e+00 -1.738736e+01 132 145 162
-6.007527e-01 -4.399588e-01 -6.107958e+00 94 107 129
-4.248511e-01 -3.035272e-01 -6.199060e+00 165 181 207
-4.766019e-01 -2.955714e-01 -6.163218e+00 87 97 110
2.366565e+00 -8.544598e-02 -5.183674e+00 74 58 52
-4.386180e-01 -1.789227e-01 -6.372092e+00 152 120 117
-7.446192e-01 5.850052e-03 -6.672505e+00 217 191 169
-1.229185e-01 1.430531e-01 -6.450700e+00 149 138 119
-4.674096e-01 2.747426e-01 -6.263276e+00 85 82 81
2.384720e+00 4.692146e-01 -5.302100e+00 59 175 170
-2.189420e-01 5.093070e-01 -6.471198e+00 202 214 241
-3.466003e-01 5.069023e-01 -6.340200e+00 174 136 117
3.935381e-01 6.456203e-01 -6.834584e+00 146 149 158
2.376914e+00 6.820614e-01 -5.243899e+00 80 43 39
2.376914e+00 6.820614e-01 -5.243899e+00 80 43 39
1.571501e+00 3.185710e+00 -2.634450e+01 78 83 91
3.231598e+00 2.910426e+00 -1.507056e+01 171 134 105
-2.146686e+00 -4.951984e+00 -1.161678e+01 118 128 138
1.872012e+00 -1.554440e+00 -5.372701e+00 160 115 89
1.865198e+00 -1.548919e+00 -5.353389e+00 160 115 89
1.496169e+00 -1.559654e+00 -5.517374e+00 139 100 72
1.336491e+00 -1.574152e+00 -5.597434e+00 122 76 53
9.185239e-01 -1.617003e+00 -5.755297e+00 148 102 86
7.376240e-01 -1.624828e+00 -5.819412e+00 141 103 88
1.474981e-01 -1.707850e+00 -6.091320e+00 38 29 40
1.144930e+00 -1.558788e+00 -5.646597e+00 127 89 77
3.397808e-01 -1.632919e+00 -6.041481e+00 196 143 104
1.004917e-01 -1.630685e+00 -6.084889e+00 162 145 152
8.853857e-02 -1.630539e+00 -6.089067e+00 148 136 143
4.346807e-01 -1.532870e+00 -5.927492e+00 240 217 215
4.346807e-01 -1.532870e+00 -5.927492e+00 240 217 215
5.068245e-01 -1.520855e+00 -5.907408e+00 134 91 61
3.881299e-01 -1.534985e+00 -5.967548e+00 215 170 156
3.881299e-01 -1.534985e+00 -5.967548e+00 215 170 156
3.326506e-01 -1.515149e+00 -5.963691e+00 149 106 91
4.264296e-01 -1.500482e+00 -5.948797e+00 243 221 211
1.620010e+00 -1.373550e+00 -5.596280e+00 197 177 169
1.661702e-02 -1.513759e+00 -6.156184e+00 129 119 131
1.922287e+00 -1.305862e+00 -5.462884e+00 134 107 121
1.716322e+00 -1.295301e+00 -5.554546e+00 173 120 78
6.923139e-01 -1.250045e+00 -5.873883e+00 196 153 117
2.766019e-01 -1.277025e+00 -6.065802e+00 98 47 29
7.975432e-01 -1.217587e+00 -5.856240e+00 156 104 58
7.614770e-01 -1.219164e+00 -5.868083e+00 182 129 80
2.004009e-01 -1.280238e+00 -6.122153e+00 161 101 65
4.912655e-02 -1.293939e+00 -6.187256e+00 61 28 23
1.950079e+00 -1.093071e+00 -5.399978e+00 139 129 153
3.756693e-02 -1.267739e+00 -6.151901e+00 93 51 53
2.484728e-02 -1.258972e+00 -6.152074e+00 185 170 171
1.950176e-01 -1.214464e+00 -6.111582e+00 170 140 149
1.160538e-01 -1.191562e+00 -6.130956e+00 241 235 238
1.240921e-01 -1.168005e+00 -6.131312e+00 171 153 157
8.592929e-01 -1.078137e+00 -5.944259e+00 144 100 58
1.165364e+00 -1.053025e+00 -5.882100e+00 160 113 67
-4.858313e-01 -8.460798e-01 -6.108243e+00 128 142 169
-5.111042e-01 -8.344490e-01 -6.116265e+00 110 126 143
-1.699073e-01 -4.259398e-01 -6.040901e+00 72 86 105
2.166892e+00 -1.516508e-01 -5.116566e+00 100 115 135
2.166892e+00 -1.516508e-01 -5.116566e+00 100 115 135
2.370501e+00 -8.867651e-02 -5.231497e+00 78 62 58
2.287794e+00 4.293196e-01 -5.341011e+00 179 162 142
6.505047e-01 -1.510608e+00 -5.877999e+00 243 202 154
2.361536e-01 -1.532652e+00 -5.998188e+00 181 136 134
1.114132e-01 -1.534516e+00 -6.075030e+00 225 181 185
8.908596e-02 -1.533236e+00 -6.100632e+00 199 159 162
1.697240e-01 -1.358625e+00 -6.156498e+00 119 73 58
6.477225e-01 -1.201718e+00 -5.897349e+00 172 132 96
6.459900e-01 -1.198384e+00 -5.881411e+00 172 132 96
5.584802e-01 -1.181839e+00 -5.880619e+00 146 121 114
1.202483e+00 -1.074766e+00 -5.765177e+00 180 147 109
-3.826957e-01 -6.729945e-01 -6.157804e+00 66 81 104
-3.826957e-01 -6.729945e-01 -6.157804e+00 66 81 104
-8.179312e-01 -2.427171e+00 -6.360078e+00 179 185 197
-4.037857e-01 1.862283e-02 -6.240069e+00 245 247 251
-8.077430e-01 -1.606672e+00 -6.424106e+00 181 183 195
-5.614564e-01 -1.342269e+00 -6.441194e+00 30 35 41
2.138189e+00 -8.722088e-01 -5.525799e+00 21 21 21
2.058969e+00 -1.244001e+00 -5.388090e+00 15 13 14
1.389742e-01 -1.162957e+00 -6.061643e+00 150 137 142
-3.268372e-01 -1.156955e+00 -6.408470e+00 33 48 69
2.324539e+00 -6.245817e-02 -5.382759e+00 24 24 26
-6.933732e+00 1.085814e+00 -2.826196e+01 153 147 147
-6.937089e+00 1.090543e+00 -2.828711e+01 153 147 147
-2.309266e+00 -4.186624e+00 -1.290397e+01 100 117 135
-3.492133e+00 -4.276523e+00 -1.337915e+01 45 56 71
5.868979e-02 -1.188038e+00 -6.082568e+00 158 147 173
5.868979e-02 -1.188038e+00 -6.082568e+00 158 147 173
-2.150322e+00 -1.201068e+00 -1.906106e+01 31 34 41
2.082770e+00 2.958181e-01 -5.395423e+00 247 221 191
-2.156781e+00 -1.789450e-01 -2.142060e+01 63 71 74
1.582916e+00 1.047633e+00 -1.128115e+01 174 126 90
9.815735e+00 5.061722e+00 -2.821542e+01 132 156 182
2.040153e+00 -7.890276e-01 -5.670270e+00 17 18 21
-4.416868e+00 -3.183561e+00 -1.853412e+01 182 181 186
-3.962123e-01 -4.934786e-01 -6.071383e+00 17 17 25
2.253786e+00 1.422337e-01 -5.445888e+00 184 130 87
-5.323154e-01 2.723620e-01 -6.432524e+00 175 253 255
2.280062e+00 4.908557e-01 -5.279444e+00 183 255 255
-8.989359e+00 8.403285e+00 -2.436881e+01 184 181 172
9.172215e-01 -1.385652e+00 -5.892072e+00 202 180 173
3.576500e-02 -1.440222e+00 -6.202969e+00 20 19 24
2.056661e+00 -9.131009e-01 -5.672603e+00 87 89 78
-5.597870e+00 -3.211955e+00 -1.874848e+01 179 182 189
2.110976e+00 -3.454512e-01 -5.051667e+00 14 19 25
-2.967956e-01 -4.781683e-01 -6.044731e+00 18 21 25
-7.455630e-01 -3.408768e-01 -6.569041e+00 191 190 193
1.913890e+00 -1.354392e+00 -5.374864e+00 117 84 84
1.390527e+00 -1.354233e+00 -5.712022e+00 248 226 213
4.135013e-01 -1.136115e+00 -5.863319e+00 226 203 192
-5.890371e+00 -3.212457e+00 -1.868412e+01 181 184 191
-2.539886e-01 -4.269841e-01 -6.201940e+00 163 180 198
-2.112294e+00 -1.143628e-01 -2.147307e+01 37 44 50
-2.869055e+00 -4.117653e+00 -1.308725e+01 57 71 81
-4.887930e+00 -4.218346e+00 -1.380347e+01 27 29 39
1.886471e+00 -1.356124e+00 -5.446316e+00 110 85 88
1.799080e+00 -1.329865e+00 -5.529596e+00 211 179 165
1.383010e+00 -1.349665e+00 -5.696640e+00 248 227 212
1.598675e+00 -1.166652e+00 -5.514513e+00 208 155 100
-2.390153e+00 -3.160172e+00 -1.509684e+01 36 46 58
-4.451321e+00 -3.252250e+00 -1.579504e+01 21 23 28
2.172093e+00 -7.071481e-01 -5.106833e+00 165 193 219
2.202851e+00 -1.705453e-01 -5.218995e+00 126 140 166
7.218687e-02 1.038044e+00 -2.263323e+01 25 31 39
3.217557e-01 1.062516e+00 -2.263573e+01 25 35 39
-3.370928e+00 -5.142240e+00 -1.331846e+01 81 92 108
2.396540e+00 -2.919330e+00 -9.382669e+00 11 15 16
1.265982e+00 -1.473777e+00 -5.568690e+00 175 148 143
1.705966e+00 -1.387493e+00 -5.440712e+00 196 164 142
1.441442e+00 -1.386164e+00 -5.637259e+00 165 135 118
1.265255e+00 -1.395622e+00 -5.684607e+00 202 173 151
2.051002e+00 -8.939723e-01 -5.634966e+00 86 89 78
-5.236921e+00 -3.211512e+00 -1.848421e+01 181 181 189
-2.574347e-01 -8.483915e-01 -6.183779e+00 145 163 185
-7.023405e-01 -8.086056e-01 -6.528683e+00 192 190 192
2.054233e+00 -1.819105e-01 -5.274336e+00 28 33 39
-1.891862e-01 1.562194e-01 -6.379838e+00 199 156 108
-1.714048e+00 -7.573178e-02 -2.118565e+01 27 31 40
-2.615533e-01 4.402067e-01 -6.457613e+00 117 84 69
1.663908e-01 9.144566e-01 -2.283156e+01 122 130 135
2.329217e+00 6.582338e-01 -5.361116e+00 219 163 124
5.540786e-01 1.747398e+00 -2.474984e+01 156 155 153
1.690299e+00 1.842665e+00 -2.450714e+01 167 168 173
-9.282296e-02 2.102222e+00 -2.483544e+01 149 162 171
-2.457911e+00 -5.037754e+00 -1.068022e+01 154 152 167
-2.594188e+00 -5.052660e+00 -1.074925e+01 169 170 183
-4.148065e+00 -5.284847e+00 -1.146673e+01 110 131 145
-3.675553e+00 -5.174321e+00 -1.348164e+01 83 91 109
-5.963565e+00 -5.299150e+00 -1.439118e+01 66 74 85
1.635355e+00 -1.796509e+00 -5.676264e+00 9 10 12
1.824875e+00 -1.546610e+00 -5.383464e+00 171 122 90
1.624427e+00 -1.508835e+00 -5.459839e+00 222 184 139
-3.739279e+00 -4.126934e+00 -1.565952e+01 182 188 198
-3.858376e+00 -4.159224e+00 -1.581175e+01 176 176 186
-7.942081e+00 -4.401075e+00 -1.728774e+01 80 85 91
-3.706123e+00 -3.471287e+00 -1.563686e+01 174 175 178
-1.265469e+00 -3.083366e+00 -1.451915e+01 43 51 61
-1.823943e+00 -1.371671e+00 -1.928479e+01 185 180 173
-1.674717e+00 -3.599247e-01 -2.139977e+01 169 165 162
2.360554e+00 5.349191e-01 -5.350170e+00 175 124 78
1.026449e-01 7.332345e-01 -2.291237e+01 167 171 180
2.812443e-01 9.359865e-01 -2.270708e+01 136 141 145
-4.254188e-01 1.715244e+00 -2.528524e+01 157 150 151
-1.598533e-01 1.988275e+00 -2.496568e+01 21 21 23
9.287861e+00 5.711287e+00 -2.738232e+01 175 174 180
-1.851057e+00 -4.953002e+00 -1.043930e+01 135 148 174
-2.114479e+00 -4.969978e+00 -1.053743e+01 139 154 179
-2.594177e+00 -5.052180e+00 -1.074817e+01 170 170 182
-2.467705e+00 -4.990523e+00 -1.067759e+01 130 146 167
-2.730886e+00 -5.001976e+00 -1.077010e+01 132 142 167
-3.400908e+00 -5.104440e+00 -1.108427e+01 186 181 194
-4.755412e+00 -5.454291e+00 -1.184340e+01 61 60 63
-3.229612e+00 -5.135605e+00 -1.327794e+01 86 95 112
-1.193619e+00 -4.189809e+00 -1.250285e+01 107 125 145
-3.257537e+00 -4.324567e+00 -1.333423e+01 142 163 180
-4.746080e+00 -4.421171e+00 -1.397578e+01 93 104 110
1.788799e+00 -1.626780e+00 -5.461542e+00 16 15 20
-2.412044e+00 -4.049916e+00 -1.462940e+01 121 127 139
-2.648964e+00 -4.116705e+00 -1.513751e+01 90 98 113
1.738888e+00 -1.321248e+00 -5.551828e+00 203 185 175
7.867098e-02 -1.466242e+00 -6.197441e+00 135 132 139
1.716862e+00 -1.178146e+00 -5.499330e+00 159 94 44
-2.125784e+00 -3.385857e+00 -1.506022e+01 158 157 161
1.318683e+00 -1.102719e+00 -5.705722e+00 189 166 156
-3.333909e+00 -3.295010e+00 -1.550274e+01 92 108 121
-3.779547e+00 -3.298410e+00 -1.555176e+01 74 83 90
-3.312362e+00 -3.115485e+00 -1.526615e+01 143 151 167
-4.466567e-01 -8.613359e-01 -6.073357e+00 29 36 55
-2.286220e-01 -7.916569e-01 -6.042082e+00 13 22 29
-2.082335e-01 -7.784275e-01 -6.129823e+00 61 78 94
-2.170486e+00 -2.356332e+00 -1.722015e+01 169 156 139
2.143213e+00 -4.022256e-01 -5.062549e+00 45 62 82
-6.890682e-01 -3.467410e-01 -6.603209e+00 54 56 61
2.318969e+00 -7.270321e-02 -5.642081e+00 23 18 14
2.318969e+00 -7.270321e-02 -5.642081e+00 23 18 14
-2.256897e+00 -1.149641e+00 -1.918186e+01 28 33 37
2.369916e+00 1.191956e-01 -5.239577e+00 221 233 239
-6.963600e-01 5.333715e-02 -6.622503e+00 241 208 177
-2.365666e+00 -1.364318e-01 -2.151133e+01 35 41 45
-1.164347e+00 6.307701e-02 -2.089069e+01 193 206 218
1.064512e-01 7.425374e-01 -2.291210e+01 167 170 179
1.829301e+00 1.859693e+00 -2.425320e+01 169 170 173
2.706477e+00 2.886991e+00 -2.611528e+01 162 162 164
6.292578e+00 9.974404e+00 -4.074209e+01 109 105 88
3.781215e+00 1.212944e+01 -4.214967e+01 108 101 82
-8.638696e+00 8.875996e+00 -2.544850e+01 132 133 128
-3.455499e+00 -5.258430e+00 -1.123663e+01 114 135 152
-3.851512e+00 -5.350200e+00 -1.144530e+01 92 101 110
-1.308654e+00 -4.857061e+00 -1.040155e+01 68 73 94
-3.943903e+00 -5.342879e+00 -1.145493e+01 94 112 124
-2.030415e+00 -4.909563e+00 -1.075482e+01 159 171 183
-2.697766e+00 -5.116573e+00 -1.297130e+01 140 157 173
-9.133926e-01 -4.170449e+00 -1.236392e+01 108 127 140
-9.133926e-01 -4.170449e+00 -1.236392e+01 108 127 140
-2.224577e+00 -4.292667e+00 -1.293075e+01 90 94 103
-2.766508e+00 -4.379205e+00 -1.320070e+01 160 162 159
-1.648923e+00 -4.139477e+00 -1.263176e+01 63 78 89
-1.648923e+00 -4.139477e+00 -1.263176e+01 63 78 89
-2.814176e+00 -4.247260e+00 -1.312873e+01 72 88 105
-3.356671e+00 -4.345774e+00 -1.341361e+01 116 130 153
-1.100769e+00 -3.905653e+00 -1.223165e+01 138 148 176
-2.881371e+00 -4.231451e+00 -1.314949e+01 129 151 174
-3.684580e+00 -4.343709e+00 -1.350294e+01 80 94 105
-4.367955e+00 -4.431523e+00 -1.381973e+01 61 67 69
-3.530767e+00 -4.265178e+00 -1.342327e+01 111 129 142
-2.028876e+00 -3.972828e+00 -1.261212e+01 134 148 172
-3.705850e+00 -4.269524e+00 -1.348935e+01 76 86 98
-4.450175e+00 -4.386397e+00 -1.382018e+01 99 109 118
-5.427488e+00 -4.492448e+00 -1.426389e+01 57 57 56
-5.100388e+00 -4.393158e+00 -1.402396e+01 60 68 79
-5.348833e+00 -4.424804e+00 -1.416196e+01 43 49 55
-5.348833e+00 -4.424804e+00 -1.416196e+01 43 49 55
-3.333120e+00 -4.068283e+00 -1.318308e+01 137 149 168
-3.572036e+00 -4.069059e+00 -1.321434e+01 118 126 141
-5.019758e+00 -4.234611e+00 -1.386374e+01 44 50 62
5.629132e-01 -1.676855e+00 -5.943019e+00 112 87 90
2.004070e+00 -1.441950e+00 -5.295653e+00 218 175 131
3.981066e-01 -1.599618e+00 -6.005438e+00 221 186 154
8.128659e-01 -1.526722e+00 -5.784245e+00 196 158 138
1.933130e-01 -1.588733e+00 -6.017354e+00 238 195 142
1.467304e+00 -1.439718e+00 -5.521315e+00 211 191 180
1.553028e+00 -1.403882e+00 -5.523774e+00 216 196 172
5.510202e-01 -1.475624e+00 -5.949279e+00 194 165 149
1.241337e+00 -1.386107e+00 -5.733082e+00 234 201 175
1.615703e+00 -1.166367e+00 -5.517076e+00 227 182 134
7.924517e-01 -1.248426e+00 -5.853730e+00 181 133 87
1.982133e+00 -1.126989e+00 -5.379573e+00 175 135 127
1.521092e+00 -1.148850e+00 -5.591083e+00 217 194 173
-1.558619e+00 -3.203908e+00 -1.471739e+01 50 59 74
-1.560273e+00 -3.202200e+00 -1.470878e+01 50 59 74
-1.233287e+00 -3.178932e+00 -1.469186e+01 88 108 123
1.981294e+00 -1.067415e+00 -5.406612e+00 172 148 152
-1.644368e+00 -3.174087e+00 -1.474034e+01 85 102 121
-1.429820e+00 -3.019424e+00 -1.451751e+01 155 143 155
-1.014479e+00 -2.951681e+00 -1.438319e+01 141 157 178
-4.546521e+00 -3.215802e+00 -1.580833e+01 149 133 134
-4.257668e+00 -3.231070e+00 -1.806272e+01 84 89 93
2.232564e+00 -6.919873e-01 -4.993435e+00 124 149 176
-5.081991e-01 -8.014945e-01 -6.242584e+00 57 68 88
-3.400440e-01 -6.743903e-01 -6.150426e+00 21 28 47
-3.175244e-01 -6.113555e-01 -6.151182e+00 45 61 77
-3.201599e-01 -6.087282e-01 -6.131649e+00 45 61 77
-1.753461e+00 -2.035726e+00 -1.683967e+01 143 129 122
-2.021713e+00 -2.017877e+00 -1.689995e+01 153 143 146
-2.357720e+00 -2.048137e+00 -1.707076e+01 172 178 188
-2.416208e-01 -4.550064e-01 -5.971165e+00 53 55 69
2.293463e+00 -6.711697e-03 -5.335548e+00 64 46 35
-2.112798e+00 -1.083142e+00 -1.924049e+01 116 118 130
2.055981e+00 2.302000e-01 -5.314678e+00 199 173 155
-1.252706e+00 -3.856008e-02 -2.094083e+01 138 115 114
-1.394570e+00 5.482367e-02 -2.095787e+01 185 196 206
-5.124310e-01 3.647849e-01 -6.367188e+00 160 123 105
-6.655021e-01 8.763616e-01 -2.304550e+01 103 107 116
5.015275e-01 9.508198e-01 -2.264240e+01 105 113 120
-4.866997e-01 5.177180e-01 -6.531441e+00 49 44 45
8.181674e-01 1.064020e+00 -2.241098e+01 26 31 36
8.735269e+00 2.131120e+00 -2.753553e+01 60 70 86
8.664881e+00 2.299297e+00 -2.730425e+01 46 49 57
8.664881e+00 2.299297e+00 -2.730425e+01 46 49 57
-6.847343e-01 2.100729e+00 -2.516252e+01 179 186 196
6.577482e+00 7.126758e+00 -4.062256e+01 180 180 174
6.442189e+00 7.180809e+00 -4.032220e+01 106 104 91
6.522006e+00 8.408021e+00 -4.068666e+01 183 180 168
6.698789e+00 8.620788e+00 -4.119586e+01 105 98 79
6.231516e+00 1.163396e+01 -4.094719e+01 92 85 71
3.693837e+00 1.172325e+01 -4.209815e+01 162 153 134
3.708335e+00 1.228724e+01 -4.209508e+01 172 168 153
-2.034809e+00 -5.013475e+00 -1.049534e+01 71 61 102
-3.589812e+00 -5.344054e+00 -1.134884e+01 128 135 153
-3.669210e+00 -5.268501e+00 -1.129703e+01 102 120 145
-3.669210e+00 -5.268501e+00 -1.129703e+01 102 120 145
-2.332429e+00 -4.917081e+00 -1.079576e+01 68 73 92
-3.819893e+00 -5.107912e+00 -1.122676e+01 165 173 186
-4.150920e+00 -5.146462e+00 -1.136455e+01 147 126 134
-4.301106e+00 -5.154087e+00 -1.143106e+01 139 141 151
-3.954455e-01 -2.716360e+00 -6.018696e+00 107 96 107
-3.954455e-01 -2.716360e+00 -6.018696e+00 107 96 107
-4.973532e+00 -5.197527e+00 -1.172411e+01 137 147 160
-5.362954e+00 -5.215505e+00 -1.186327e+01 99 96 105
-1.787747e+00 -5.044022e+00 -1.269921e+01 97 102 118
-4.094251e-01 -2.337045e+00 -6.056599e+00 66 77 95
-9.548752e-01 -4.196343e+00 -1.242193e+01 113 131 147
-2.433604e+00 -4.307816e+00 -1.300256e+01 80 81 85
-2.135377e+00 -4.237092e+00 -1.290354e+01 73 90 110
-2.919136e+00 -4.335460e+00 -1.318366e+01 64 67 68
-1.792750e+00 -4.139013e+00 -1.266664e+01 71 82 92
-1.793291e+00 -4.141566e+00 -1.267745e+01 71 82 92
-2.672270e+00 -4.279749e+00 -1.307934e+01 121 137 146
-2.849531e+00 -4.290845e+00 -1.316240e+01 122 136 145
-2.290285e+00 -4.197267e+00 -1.293224e+01 95 110 129
-2.652424e+00 -4.206113e+00 -1.302457e+01 98 120 138
-1.681348e+00 -4.009638e+00 -1.250797e+01 34 40 59
-2.358221e+00 -4.076081e+00 -1.280446e+01 63 66 89
-4.249221e+00 -4.425818e+00 -1.376698e+01 67 68 72
-4.242092e+00 -4.282154e+00 -1.366732e+01 77 94 103
-3.349147e+00 -4.093261e+00 -1.315501e+01 161 171 188
-4.474225e+00 -4.309968e+00 -1.378450e+01 81 84 97
-4.474225e+00 -4.309968e+00 -1.378450e+01 81 84 97
-4.157075e+00 -4.172433e+00 -1.356952e+01 135 128 136
-5.100678e+00 -4.239380e+00 -1.391952e+01 42 50 62
-5.100678e+00 -4.239380e+00 -1.391952e+01 42 50 62
-5.153267e+00 -4.220418e+00 -1.394286e+01 114 118 127
-4.775866e+00 -4.113660e+00 -1.370203e+01 121 127 153
1.293696e+00 -1.576830e+00 -5.607712e+00 145 81 42
1.691182e+00 -1.516406e+00 -5.415150e+00 118 65 36
5.199510e-02 -1.685732e+00 -6.130104e+00 31 20 20
1.131261e+00 -1.537479e+00 -5.645095e+00 174 139 126
9.105792e-01 -1.559776e+00 -5.746146e+00 183 150 124
1.293896e+00 -1.500687e+00 -5.581001e+00 202 183 176
5.970629e-01 -1.556641e+00 -5.862291e+00 159 111 96
8.081013e-01 -1.487378e+00 -5.781238e+00 243 214 183
9.803440e-02 -1.558547e+00 -6.090584e+00 131 100 104
4.217674e-03 -1.551517e+00 -6.117955e+00 100 69 70
1.850972e+00 -1.352918e+00 -5.448538e+00 112 86 90
1.836548e+00 -1.361060e+00 -5.487850e+00 113 83 83
-3.818013e-02 -1.525419e+00 -6.110880e+00 19 22 27
5.039958e-01 -1.474517e+00 -5.951591e+00 210 187 172
5.039958e-01 -1.474517e+00 -5.951591e+00 210 187 172
-2.174435e-02 -1.518549e+00 -6.110758e+00 132 131 139
6.471703e-01 -1.458012e+00 -5.906149e+00 227 196 178
2.010503e+00 -1.285561e+00 -5.450916e+00 65 37 27
3.293242e-01 -1.438659e+00 -6.094678e+00 167 127 128
1.751502e+00 -1.209086e+00 -5.505319e+00 89 43 19
1.319715e+00 -1.169177e+00 -5.627736e+00 227 203 172
1.296566e+00 -1.171962e+00 -5.660258e+00 237 208 183
1.624561e+00 -1.131623e+00 -5.510459e+00 203 177 163
1.927038e+00 -1.098932e+00 -5.400609e+00 211 200 203
5.879886e-01 -1.223319e+00 -5.932965e+00 167 120 92
-1.388164e+00 -3.232598e+00 -1.466610e+01 100 115 131
1.046968e+00 -1.163895e+00 -5.761945e+00 179 146 139
-2.229257e+00 -3.327517e+00 -1.520990e+01 76 94 104
-2.450472e+00 -3.319672e+00 -1.514686e+01 94 103 118
-1.155470e+00 -3.163914e+00 -1.463755e+01 101 119 131
-1.588551e+00 -3.177421e+00 -1.475520e+01 87 103 120
2.262444e+00 -9.792287e-01 -5.048164e+00 24 32 51
1.849502e+00 -1.061405e+00 -5.484762e+00 147 105 85
-6.771060e-01 -1.315749e+00 -6.498961e+00 125 130 138
1.761167e+00 -1.064169e+00 -5.511914e+00 224 186 143
1.761167e+00 -1.064169e+00 -5.511914e+00 224 186 143
-3.379165e+00 -3.332862e+00 -1.550794e+01 43 55 68
-1.766815e+00 -3.000788e+00 -1.463640e+01 122 130 149
-2.616230e+00 -3.039824e+00 -1.496464e+01 136 149 172
-2.806777e+00 -3.072650e+00 -1.513032e+01 143 159 177
-3.699576e+00 -3.124485e+00 -1.535204e+01 156 158 170
2.103545e+00 -6.847348e-01 -5.062795e+00 53 79 99
2.219676e+00 -4.685681e-01 -5.088370e+00 78 96 116
-1.706862e+00 -2.146473e+00 -1.687944e+01 106 111 116
-1.245958e+00 -1.942844e+00 -1.659917e+01 124 137 154
-2.463335e+00 -2.042342e+00 -1.702371e+01 156 166 177
-1.275866e+00 -1.954490e+00 -1.671309e+01 124 139 161
-1.333479e+00 -1.944645e+00 -1.662890e+01 119 127 148
-1.970648e+00 -1.982912e+00 -1.688785e+01 129 139 154
-3.184614e-01 -5.422040e-01 -6.084601e+00 90 103 123
-4.719524e-01 -5.511558e-01 -6.146231e+00 105 125 150
-4.875294e-01 -4.383721e-01 -6.055555e+00 49 64 91
2.143429e+00 -1.785403e-01 -5.154076e+00 115 135 162
2.266473e+00 -1.485078e-01 -5.101223e+00 127 147 177
2.340782e+00 -9.257160e-02 -5.197182e+00 12 14 14
2.335531e-01 -1.073626e+00 -1.835877e+01 73 83 95
-1.437460e+00 -1.173882e+00 -1.899861e+01 111 123 135
4.418619e-01 -3.235301e-01 -8.523493e+00 183 129 75
-1.119573e+00 -1.003409e+00 -1.871899e+01 147 147 156
-1.891918e+00 -1.051011e+00 -1.903158e+01 181 187 199
-9.519973e-01 -9.667615e-01 -1.871528e+01 113 124 142
2.354837e+00 2.742561e-02 -5.282816e+00 122 87 68
-2.555886e-01 -1.334359e-01 -6.410073e+00 102 104 106
2.035192e+00 2.272029e-01 -5.324580e+00 199 174 151
-1.792598e+00 -3.462340e-01 -2.129078e+01 168 163 159
-2.383858e+00 -2.305148e-01 -2.160425e+01 124 133 142
3.251177e-01 2.862553e-02 -2.037379e+01 65 76 93
-1.317692e+00 -6.514268e-02 -2.094656e+01 34 41 44
4.021603e-01 4.174144e-02 -2.030956e+01 81 94 109
-1.919787e+00 -6.442683e-02 -2.122530e+01 115 115 120
4.890098e-01 7.915322e-02 -2.023299e+01 149 160 175
2.705195e-01 6.887603e-02 -2.037165e+01 146 154 166
5.566173e-01 8.872094e-02 -2.025164e+01 174 176 189
-1.985326e+00 -2.774905e-02 -2.126672e+01 76 74 80
3.859521e-01 1.128679e-01 -2.034159e+01 95 110 123
2.955427e-01 1.103471e-01 -2.027098e+01 98 111 124
-2.345361e+00 4.842207e-03 -2.139230e+01 200 210 220
-1.692270e-01 3.586343e-01 -6.402712e+00 174 242 251
-2.125401e+00 6.765455e-01 -2.373731e+01 47 48 43
1.505453e-01 8.535584e-01 -2.275273e+01 145 153 155
2.755626e-01 9.322437e-01 -2.264185e+01 138 144 149
7.545726e-01 9.627474e-01 -2.255277e+01 94 101 109
-2.917053e-01 5.111997e-01 -6.439006e+00 243 203 168
-7.755861e-01 1.015932e+00 -2.288188e+01 122 128 134
2.353528e+00 6.806326e-01 -5.249750e+00 137 103 95
-1.201688e+00 1.685815e+00 -2.552807e+01 149 139 127
1.208446e+00 1.053520e+00 -1.098564e+01 171 167 174
2.103845e+00 2.004576e+00 -2.412664e+01 45 52 63
1.649249e+00 2.009494e+00 -2.418580e+01 120 124 127
1.578265e+00 2.011756e+00 -2.431557e+01 116 119 124
1.325679e+00 2.008585e+00 -2.446038e+01 99 102 107
2.051660e+00 2.043929e+00 -2.410175e+01 106 108 119
2.436254e+00 2.060264e+00 -2.394430e+01 82 91 100
-1.153067e+00 2.019815e+00 -2.531810e+01 65 77 80
2.574585e+00 2.171206e+00 -2.376762e+01 49 58 63
2.684195e+00 3.097973e+00 -2.615654e+01 96 101 112
2.415175e+00 3.209378e+00 -2.606082e+01 120 124 127
1.731475e+00 3.179431e+00 -2.612663e+01 80 84 89
6.113270e+00 6.594721e+00 -4.069289e+01 204 207 207
6.088889e+00 7.850150e+00 -4.073156e+01 199 203 202
6.088889e+00 7.850150e+00 -4.073156e+01 199 203 202
6.450766e+00 1.058593e+01 -4.111427e+01 114 106 87
5.369804e+00 1.153552e+01 -4.129931e+01 173 171 161
3.874054e+00 1.183788e+01 -4.248652e+01 111 99 80
5.921184e+00 1.214912e+01 -4.123719e+01 188 187 179
5.620610e+00 1.213340e+01 -4.131080e+01 183 184 174
5.620610e+00 1.213340e+01 -4.131080e+01 183 184 174
4.073269e+00 1.228247e+01 -4.212635e+01 186 185 178
4.073269e+00 1.228247e+01 -4.212635e+01 186 185 178
-1.906777e+00 -5.014606e+00 -1.046465e+01 74 73 111
-2.233495e+00 -5.024965e+00 -1.058232e+01 102 98 131
-2.005839e+00 -4.967005e+00 -1.047700e+01 116 141 157
-2.460915e+00 -5.042509e+00 -1.066425e+01 168 163 179
-3.319825e+00 -5.080991e+00 -1.101645e+01 177 175 186
-3.319825e+00 -5.080991e+00 -1.101645e+01 177 175 186
-3.600083e+00 -5.113300e+00 -1.115112e+01 158 154 167
-3.980085e+00 -5.165183e+00 -1.129370e+01 49 35 48
-3.977485e+00 -5.124078e+00 -1.129330e+01 154 160 173
-4.153052e+00 -5.120202e+00 -1.135844e+01 63 71 89
-4.153052e+00 -5.120202e+00 -1.135844e+01 63 71 89
-1.227720e+00 -4.266762e+00 -1.255058e+01 149 150 139
-1.031643e+00 -4.195483e+00 -1.244483e+01 102 123 142
-2.103911e+00 -4.252451e+00 -1.287183e+01 134 151 167
-2.067616e+00 -4.232969e+00 -1.283048e+01 144 166 180
-2.134921e+00 -4.183648e+00 -1.281383e+01 129 148 168
-3.227942e+00 -4.366565e+00 -1.334385e+01 74 77 83
-1.071439e+00 -3.965127e+00 -1.226299e+01 44 47 71
-3.387922e+00 -4.335188e+00 -1.338753e+01 48 56 72
-3.150494e+00 -4.265601e+00 -1.326287e+01 81 89 109
-2.621931e+00 -4.069291e+00 -1.286499e+01 48 52 79
-2.621931e+00 -4.069291e+00 -1.286499e+01 48 52 79
-4.629124e+00 -4.440192e+00 -1.388692e+01 68 73 79
-2.197095e+00 -3.999052e+00 -1.268241e+01 113 121 142
-1.164574e+00 -3.861765e+00 -1.240782e+01 147 155 164
-5.043879e+00 -4.479690e+00 -1.410134e+01 60 64 63
-3.723128e+00 -4.128699e+00 -1.334110e+01 147 149 163
-5.069642e+00 -4.257899e+00 -1.388470e+01 46 55 65
1.970586e+00 -1.590197e+00 -5.356573e+00 151 124 122
-3.951396e+00 -4.075010e+00 -1.338376e+01 130 131 158
-5.057425e+00 -4.225618e+00 -1.387378e+01 126 124 127
1.710823e+00 -1.558398e+00 -5.421431e+00 165 123 103
-5.193800e+00 -4.157179e+00 -1.394126e+01 127 131 156
1.871914e+00 -1.516042e+00 -5.358245e+00 64 37 26
6.090499e-01 -1.670257e+00 -5.911271e+00 155 105 91
4.010079e-01 -1.693298e+00 -6.001043e+00 53 23 28
4.968004e-01 -1.678837e+00 -5.962335e+00 162 131 135
8.922696e-02 -1.733782e+00 -6.149268e+00 24 27 39
1.515945e+00 -1.543819e+00 -5.501759e+00 212 181 151
1.528757e+00 -1.537741e+00 -5.505163e+00 103 69 48
1.152738e+00 -1.570564e+00 -5.650538e+00 224 187 168
8.122898e-02 -1.701385e+00 -6.129982e+00 161 152 147
5.726927e-02 -1.693318e+00 -6.155167e+00 32 21 20
1.031750e+00 -1.529269e+00 -5.687807e+00 223 189 149
1.350514e+00 -1.479352e+00 -5.558945e+00 136 99 79
1.968311e+00 -1.407555e+00 -5.315247e+00 146 117 109
1.957339e+00 -1.409228e+00 -5.321130e+00 237 208 194
1.987131e+00 -1.373782e+00 -5.324574e+00 148 108 108
7.619509e-03 -1.562297e+00 -6.061813e+00 136 86 83
4.192909e-01 -1.516275e+00 -5.937855e+00 227 191 150
-3.479047e+00 -4.156438e+00 -1.552009e+01 107 105 116
1.410728e+00 -1.409338e+00 -5.572604e+00 230 209 182
1.894924e+00 -1.356114e+00 -5.453560e+00 105 79 82
1.526258e+00 -1.352564e+00 -5.648628e+00 197 177 175
8.817882e-02 -1.481267e+00 -6.127936e+00 166 124 102
4.141599e-01 -1.445916e+00 -6.024842e+00 102 70 75
1.313155e+00 -1.355248e+00 -5.697127e+00 195 185 186
1.216088e+00 -1.341061e+00 -5.777318e+00 168 139 111
2.962580e-01 -1.415443e+00 -6.117087e+00 133 116 127
1.206169e+00 -1.306495e+00 -5.775565e+00 103 53 31
-2.075951e+00 -3.559016e+00 -1.509256e+01 140 144 155
4.220514e-01 -1.338619e+00 -6.066300e+00 103 57 42
4.220514e-01 -1.338619e+00 -6.066300e+00 103 57 42
5.639441e-01 -1.281216e+00 -5.989638e+00 97 44 17
1.769924e+00 -1.147522e+00 -5.454305e+00 166 119 91
1.804147e+00 -1.138849e+00 -5.452616e+00 237 207 172
1.804147e+00 -1.138849e+00 -5.452616e+00 237 207 172
1.870489e+00 -1.117161e+00 -5.419488e+00 165 120 112
1.518782e+00 -1.126714e+00 -5.490857e+00 224 197 178
1.518782e+00 -1.126714e+00 -5.490857e+00 224 197 178
1.936184e+00 -1.099063e+00 -5.391160e+00 207 193 199
6.437054e-01 -1.205894e+00 -5.876583e+00 240 202 165
9.515168e-02 -1.267123e+00 -6.142673e+00 86 47 32
1.111397e+00 -1.157488e+00 -5.743006e+00 233 211 207
1.336332e+00 -1.118926e+00 -5.645871e+00 243 224 220
1.811244e+00 -1.072200e+00 -5.466849e+00 231 201 171
-2.359491e+00 -3.269884e+00 -1.507897e+01 52 59 76
1.842659e+00 -1.067981e+00 -5.450176e+00 221 201 169
4.258095e-01 -1.196790e+00 -5.999615e+00 116 71 55
1.773170e+00 -1.071415e+00 -5.500710e+00 159 131 125
1.680788e+00 -1.066107e+00 -5.534334e+00 236 202 166
-1.157439e+00 -3.048563e+00 -1.446708e+01 130 124 138
-1.223733e+00 -3.047557e+00 -1.446434e+01 122 113 129
-1.132893e+00 -3.026226e+00 -1.446369e+01 97 102 123
4.957260e-01 -1.155795e+00 -5.993719e+00 162 147 160
-1.683628e+00 -3.024860e+00 -1.460776e+01 146 152 168
-1.801326e+00 -3.046979e+00 -1.472106e+01 142 142 155
-1.733539e+00 -3.028630e+00 -1.464967e+01 144 151 164
-2.372909e+00 -3.072557e+00 -1.490950e+01 155 161 175
-2.804200e+00 -3.102751e+00 -1.510551e+01 194 201 211
1.012284e-01 -1.123984e+00 -6.148826e+00 137 94 79
1.012284e-01 -1.123984e+00 -6.148826e+00 137 94 79
-3.507256e+00 -3.102103e+00 -1.539961e+01 139 151 170
-2.631726e-01 -1.023045e+00 -6.099708e+00 72 85 102
2.323717e+00 -7.321565e-01 -4.963844e+00 58 56 57
-4.815668e-01 -8.257590e-01 -6.119357e+00 27 43 52
2.301352e+00 -5.093448e-01 -5.056305e+00 76 93 112
6.442861e-01 -8.726377e-01 -8.181875e+00 127 78 45
-2.814752e+00 -2.144768e+00 -1.721280e+01 42 49 56
-1.600343e+00 -1.973585e+00 -1.689095e+01 124 136 152
-2.228085e+00 -1.994779e+00 -1.702759e+01 135 152 169
-2.574962e+00 -2.012863e+00 -1.709397e+01 133 148 166
2.348915e+00 -3.352928e-01 -4.936262e+00 46 47 51
2.294373e+00 -1.582606e-01 -5.094283e+00 26 30 53
2.284582e+00 -1.454416e-01 -5.070350e+00 132 148 174
-2.533636e+00 -1.434488e+00 -1.951222e+01 130 128 131
-2.533636e+00 -1.434488e+00 -1.951222e+01 130 128 131
-5.013634e-01 -2.490239e-01 -6.325022e+00 122 95 88
-4.406805e-01 -2.431492e-01 -6.308693e+00 105 80 75
-9.082365e-01 -9.927214e-01 -1.871280e+01 156 162 173
-2.322448e+00 -1.067153e+00 -1.914888e+01 174 180 188
-2.468474e+00 -1.070557e+00 -1.917690e+01 187 191 200
-1.277402e+00 -9.765693e-01 -1.880746e+01 119 134 148
-1.600817e+00 -1.007521e+00 -1.908181e+01 134 146 163
-2.715474e+00 -1.063527e+00 -1.936072e+01 127 133 147
2.504882e+00 5.111383e-02 -5.222425e+00 180 180 194
1.089034e+00 -1.956822e-01 -9.439128e+00 98 56 21
-2.316151e+00 -2.944946e-01 -2.151536e+01 104 114 123
-1.302810e+00 -2.414640e-02 -2.089218e+01 143 123 125
-1.583897e+00 -3.869397e-02 -2.106215e+01 129 120 121
-2.442712e+00 -8.177138e-02 -2.137079e+01 124 122 133
3.452751e-01 7.436830e-02 -2.036317e+01 149 157 170
-4.628329e-01 2.407862e-01 -6.534925e+00 163 251 255
5.846019e-01 1.722839e-01 -2.021159e+01 199 210 226
3.124574e-01 1.541504e-01 -2.034291e+01 208 219 232
5.263705e-01 1.713714e-01 -2.019731e+01 197 209 225
7.501986e-01 2.980894e-01 -9.908006e+00 158 165 179
-2.307645e-01 4.239259e-01 -6.428383e+00 189 161 130
-5.062271e-01 8.124788e-01 -2.301830e+01 101 100 104
-5.062271e-01 8.124788e-01 -2.301830e+01 101 100 104
1.680042e-01 9.245296e-01 -2.257625e+01 141 147 152
-5.060991e-01 5.226078e-01 -6.551950e+00 34 32 26
-8.198246e-01 1.021862e+00 -2.305885e+01 127 133 139
-3.332437e-01 1.046685e+00 -2.273849e+01 129 120 123
-4.467628e-01 1.043835e+00 -2.287995e+01 129 119 125
-1.468093e-02 1.068369e+00 -2.262603e+01 126 116 118
1.087901e+00 1.133295e+00 -2.236083e+01 132 106 103
-6.072465e-01 1.070889e+00 -2.291899e+01 114 120 129
9.406307e-01 1.964682e+00 -2.458889e+01 83 92 99
2.345422e+00 2.053215e+00 -2.395661e+01 83 93 103
2.229839e+00 2.052772e+00 -2.400714e+01 100 109 118
-1.491261e+00 1.971707e+00 -2.544845e+01 104 108 111
9.202167e+00 2.781435e+00 -2.708681e+01 106 121 142
1.692363e+00 2.133976e+00 -2.410760e+01 64 74 79
2.034804e+00 2.155555e+00 -2.393226e+01 56 65 73
2.798023e+00 2.641550e+00 -2.616315e+01 104 103 108
1.740979e-01 2.939212e+00 -2.716331e+01 61 70 75
1.638906e+00 3.195439e+00 -2.634242e+01 74 81 84
9.208481e+00 4.721992e+00 -2.747048e+01 68 94 119
6.401404e+00 8.094874e+00 -4.075615e+01 108 108 96
6.401311e+00 8.439877e+00 -4.067405e+01 111 108 99
6.138630e+00 1.050097e+01 -4.082508e+01 177 171 157
6.312419e+00 1.071535e+01 -4.108973e+01 90 84 70
6.126904e+00 1.124842e+01 -4.100266e+01 159 159 153
6.222608e+00 1.200878e+01 -4.107120e+01 91 85 69
-3.132932e+00 -5.270713e+00 -1.111559e+01 93 106 122
-1.127955e+00 -4.885807e+00 -1.094268e+01 157 168 177
-1.292027e+00 -4.386912e+00 -1.256569e+01 198 201 206
-2.169598e+00 -4.190906e+00 -1.282643e+01 153 175 194
-2.574641e+00 -4.283370e+00 -1.309190e+01 126 140 152
-2.497477e+00 -4.241059e+00 -1.300372e+01 90 108 125
-9.058626e-01 -3.941016e+00 -1.219813e+01 166 178 196
-9.653024e-01 -3.941546e+00 -1.220156e+01 171 180 201
-1.543914e+00 -3.981827e+00 -1.244058e+01 166 168 193
-3.093747e+00 -4.214627e+00 -1.316593e+01 128 146 160
-3.619924e+00 -4.214898e+00 -1.335434e+01 48 50 63
-3.228775e+00 -4.108335e+00 -1.318730e+01 153 165 181
1.092217e+00 -1.751931e+00 -5.742419e+00 51 59 75
-3.308759e+00 -4.097212e+00 -1.316540e+01 152 165 180
-3.514334e+00 -4.107667e+00 -1.323795e+01 154 171 184
-2.842802e+00 -3.953085e+00 -1.301752e+01 149 156 166
1.952115e+00 -1.554503e+00 -5.334949e+00 74 27 17
1.022416e+00 -1.671410e+00 -5.791933e+00 35 22 31
-3.537013e+00 -4.008677e+00 -1.360108e+01 115 123 130
9.276444e-01 -1.650563e+00 -5.786336e+00 172 136 125
1.818043e+00 -1.489904e+00 -5.371159e+00 218 184 146
9.183436e-01 -1.580203e+00 -5.742230e+00 164 132 120
1.830121e-01 -1.666455e+00 -6.057461e+00 125 88 78
1.477167e+00 -1.495969e+00 -5.509833e+00 106 65 55
1.477167e+00 -1.495969e+00 -5.509833e+00 106 65 55
1.899763e+00 -1.436590e+00 -5.309660e+00 138 103 93
1.912066e+00 -1.425213e+00 -5.339384e+00 166 126 115
1.973909e-02 -1.631449e+00 -6.101792e+00 126 80 65
-2.060269e+00 -4.050141e+00 -1.504483e+01 77 83 93
6.596769e-01 -1.506651e+00 -5.807450e+00 242 208 194
2.016760e+00 -1.371612e+00 -5.337229e+00 190 172 164
5.067698e-01 -1.520924e+00 -5.907033e+00 115 69 44
1.880440e+00 -1.381572e+00 -5.392076e+00 163 134 120
1.158601e+00 -1.429855e+00 -5.673599e+00 243 220 202
2.128261e-01 -1.513666e+00 -6.024951e+00 239 214 208
2.104989e-01 -1.510802e+00 -6.014049e+00 239 214 208
1.398551e+00 -1.394159e+00 -5.648996e+00 189 168 147
1.703064e+00 -1.361792e+00 -5.549779e+00 195 169 157
5.459155e-02 -1.515512e+00 -6.121934e+00 196 200 212
1.003070e+00 -1.411953e+00 -5.797606e+00 198 173 162
3.647349e-01 -1.469263e+00 -6.010657e+00 204 168 150
1.971176e+00 -1.323610e+00 -5.466167e+00 123 111 128
-3.010867e+00 -3.911750e+00 -1.534278e+01 145 154 166
6.347215e-02 -1.476966e+00 -6.090383e+00 183 153 142
1.699719e-01 -1.447445e+00 -6.086252e+00 162 142 143
1.733258e+00 -1.289836e+00 -5.558757e+00 127 65 29
1.454129e-01 -1.440337e+00 -6.175912e+00 122 98 112
1.171592e+00 -1.318483e+00 -5.755531e+00 104 50 23
-2.070390e+00 -3.624466e+00 -1.503192e+01 130 137 147
-2.070390e+00 -3.624466e+00 -1.503192e+01 130 137 147
1.223677e+00 -1.305114e+00 -5.767187e+00 92 45 23
1.943994e+00 -1.164089e+00 -5.392812e+00 184 117 74
-2.831780e+00 -3.549714e+00 -1.544222e+01 126 138 152
7.563464e-01 -1.244814e+00 -5.872419e+00 148 93 49
9.217233e-01 -1.221029e+00 -5.804759e+00 211 171 120
1.842943e+00 -1.129000e+00 -5.437770e+00 121 83 67
1.908626e+00 -1.097184e+00 -5.401708e+00 100 89 100
9.670491e-01 -1.146034e+00 -5.769631e+00 229 208 204
9.643521e-01 -1.148613e+00 -5.794765e+00 233 213 208
9.629671e-01 -1.147883e+00 -5.791221e+00 233 213 208
1.000710e+00 -1.142955e+00 -5.780273e+00 155 130 127
1.989044e+00 -1.054035e+00 -5.410710e+00 230 213 180
1.396414e+00 -1.079542e+00 -5.655856e+00 184 141 119
2.248206e+00 -9.226532e-01 -5.070954e+00 14 28 44
-2.420728e+00 -3.071429e+00 -1.492580e+01 161 169 183
2.268608e+00 -7.860452e-01 -5.039526e+00 43 53 65
6.759677e-03 -7.875454e-01 -6.188763e+00 91 98 113
2.054140e+00 -4.931251e-01 -5.314229e+00 47 55 65
-2.801988e-01 -6.560761e-01 -6.138836e+00 107 120 136
2.319668e+00 -4.193722e-01 -5.000997e+00 102 103 98
-1.299689e+00 -2.017321e+00 -1.665564e+01 121 108 108
-1.111034e+00 -1.991919e+00 -1.655738e+01 133 122 127
-2.938362e+00 -2.161532e+00 -1.730431e+01 46 46 52
-2.051277e+00 -1.981837e+00 -1.696663e+01 133 149 165
-4.847484e-01 -3.748669e-01 -6.096424e+00 106 117 128
2.142583e+00 -1.770482e-01 -5.204701e+00 116 140 168
-4.531830e-01 -3.033758e-01 -6.169063e+00 178 195 221
-2.554450e+00 -1.395456e+00 -1.953761e+01 155 154 148
