ply
format ascii 1.0
element face 0
property list uchar int vertex_indices
element vertex 920
property float x
property float y
property float z
property uchar diffuse_red
property uchar diffuse_green
property uchar diffuse_blue
end_header
2.504020e+00 5.386702e-01 -5.214386e+00 142 236 240
-4.653642e-01 5.681622e-01 -6.449739e+00 32 28 24
2.571702e+00 7.047627e-01 -5.023757e+00 108 70 59
8.710601e+00 1.781295e+00 -2.735191e+01 80 93 109
2.471324e+00 7.768481e-01 -5.227639e+00 93 56 42
1.036947e+01 2.224456e+00 -2.715870e+01 81 97 119
8.857150e+00 3.134502e+00 -2.764924e+01 14 17 23
8.857150e+00 3.134502e+00 -2.764924e+01 14 17 23
8.912363e+00 3.172062e+00 -2.752605e+01 52 62 74
8.915677e+00 3.173123e+00 -2.753738e+01 52 62 74
3.972606e+00 6.317558e+00 -4.141409e+01 86 87 79
6.177850e+00 6.930258e+00 -4.010605e+01 169 170 163
8.327755e+00 5.263979e+00 -2.722711e+01 78 87 99
6.312957e+00 8.239949e+00 -4.060956e+01 105 99 85
6.312957e+00 8.239949e+00 -4.060956e+01 105 99 85
9.458707e+00 5.882924e+00 -2.732720e+01 114 129 148
6.327685e+00 8.609409e+00 -4.061646e+01 109 106 91
6.327685e+00 8.609409e+00 -4.061646e+01 109 106 91
8.140064e+00 6.116217e+00 -2.737338e+01 72 82 94
6.525906e+00 8.756138e+00 -4.082473e+01 178 174 163
2.960626e+00 8.948392e+00 -4.130527e+01 68 64 55
8.537198e+00 6.442109e+00 -2.799823e+01 154 156 151
6.145365e+00 9.165813e+00 -4.069296e+01 174 172 165
6.299742e+00 9.182605e+00 -4.069823e+01 106 100 84
6.097276e+00 9.745235e+00 -4.081745e+01 168 166 157
6.087500e+00 9.728491e+00 -4.074570e+01 168 166 157
-1.333596e+00 1.019228e+01 -4.265728e+01 158 156 159
-1.333596e+00 1.019228e+01 -4.265728e+01 158 156 159
2.658158e+00 1.040907e+01 -4.104361e+01 149 147 145
6.262060e+00 1.057185e+01 -4.102104e+01 105 100 79
3.816201e+00 1.075441e+01 -4.206324e+01 91 88 73
-4.773996e-01 1.208821e+01 -4.700912e+01 100 85 70
1.034133e+01 9.624579e+00 -2.725627e+01 111 127 150
1.284936e+01 9.767361e+00 -2.624843e+01 91 99 122
1.323907e+01 9.751569e+00 -2.585243e+01 79 95 118
1.303869e+01 9.922319e+00 -2.594042e+01 93 109 134
-4.705888e+00 1.342874e+01 -3.666167e+01 106 98 92
2.213164e+01 2.007956e+01 -4.988398e+01 97 82 61
2.213164e+01 2.007956e+01 -4.988398e+01 97 82 61
2.222741e+01 2.015811e+01 -5.008099e+01 97 82 61
2.436950e+01 1.783958e+01 -4.282349e+01 129 122 97
1.745474e+01 2.168656e+01 -5.119132e+01 197 173 142
-1.825667e+00 -4.885970e+00 -1.046606e+01 144 154 166
-2.886068e+00 -5.057719e+00 -1.079519e+01 182 178 192
-2.029286e+00 -4.900667e+00 -1.068333e+01 158 173 186
-4.452853e+00 -5.158966e+00 -1.142088e+01 146 144 161
-5.339813e+00 -5.348806e+00 -1.190153e+01 76 87 93
-5.553350e+00 -5.179404e+00 -1.324306e+01 144 155 161
-2.142590e+00 -4.017188e+00 -1.264525e+01 167 174 192
1.581432e+00 -1.591018e+00 -5.456389e+00 23 22 27
1.735119e+00 -1.562210e+00 -5.372957e+00 147 115 110
1.707051e+00 -1.564111e+00 -5.390441e+00 140 106 94
-5.368216e+00 -4.354171e+00 -1.410402e+01 115 117 129
1.713353e+00 -1.546013e+00 -5.381230e+00 74 40 22
1.258389e+00 -1.570735e+00 -5.558326e+00 84 48 31
-6.054485e+00 -4.279652e+00 -1.426827e+01 45 46 59
9.592222e-01 -1.544905e+00 -5.658496e+00 174 134 126
6.742691e-01 -1.535840e+00 -5.752684e+00 150 95 51
2.095609e-01 -1.568551e+00 -5.959495e+00 45 34 29
8.750484e-01 -1.476954e+00 -5.682249e+00 188 149 129
1.870968e+00 -1.348827e+00 -5.313713e+00 214 186 175
1.819706e+00 -1.343482e+00 -5.337932e+00 182 140 118
-3.649292e+00 -4.154636e+00 -1.553038e+01 97 99 117
2.050136e+00 -1.255778e+00 -5.355625e+00 191 163 156
-7.559299e+00 -4.397533e+00 -1.720809e+01 90 94 103
1.747128e+00 -1.112132e+00 -5.403903e+00 203 156 120
-1.524103e+00 -3.168534e+00 -1.472736e+01 89 105 121
-2.638732e+00 -3.081005e+00 -1.503543e+01 161 164 179
-2.169880e+00 -3.020528e+00 -1.483533e+01 115 124 144
-5.711247e+00 -3.243757e+00 -1.621810e+01 137 136 150
-7.337740e+00 -3.317952e+00 -1.687723e+01 132 136 140
2.206307e+00 -6.574740e-01 -4.954544e+00 21 29 43
-1.003201e+01 -3.143232e+00 -2.034831e+01 103 98 101
-2.667321e+00 -2.045455e+00 -1.721918e+01 152 152 162
-5.231767e-01 -3.931524e-01 -5.996544e+00 21 26 33
-1.017062e+01 -1.661889e+00 -2.033322e+01 175 172 179
2.234190e+00 -1.116608e-01 -5.057227e+00 93 101 120
-2.350139e+00 -1.316030e+00 -1.946242e+01 65 65 61
-4.246381e+00 -1.080694e+00 -1.992694e+01 187 194 204
2.396018e+00 8.576266e-02 -5.175679e+00 147 109 98
2.520329e+00 1.083229e-01 -5.146388e+00 177 174 183
-2.126079e+00 -2.992975e-01 -2.164421e+01 59 60 64
-2.235402e+00 -3.038374e-01 -2.165471e+01 61 61 64
2.420221e+00 6.792662e-01 -5.119498e+00 138 111 96
-1.045997e+01 3.015782e+00 -2.068287e+01 129 136 142
6.358765e+00 6.619322e+00 -4.044009e+01 185 183 178
6.547472e+00 6.738746e+00 -4.049244e+01 183 180 171
3.924551e+00 6.860130e+00 -4.156334e+01 92 94 85
6.661929e+00 6.886990e+00 -4.075396e+01 91 81 69
6.544692e+00 7.474341e+00 -4.065861e+01 180 177 169
8.608521e+00 5.492302e+00 -2.768869e+01 68 80 92
6.557272e+00 7.831870e+00 -4.066180e+01 179 176 163
6.242742e+00 8.401113e+00 -4.046474e+01 175 169 157
3.928949e+00 8.882639e+00 -4.183479e+01 84 78 68
6.268745e+00 8.786308e+00 -4.064937e+01 176 174 162
6.264439e+00 8.781721e+00 -4.062503e+01 176 174 162
6.147276e+00 9.527713e+00 -4.068413e+01 172 170 158
3.494018e+00 1.011927e+01 -4.206538e+01 12 14 10
3.813872e+00 1.038192e+01 -4.209214e+01 92 89 74
6.786700e+00 1.045308e+01 -4.193264e+01 87 73 55
6.780258e+00 1.081662e+01 -4.191535e+01 99 80 62
6.780258e+00 1.081662e+01 -4.191535e+01 99 80 62
6.409626e+00 1.064632e+01 -4.100707e+01 173 164 149
4.730861e+00 1.182857e+01 -4.444339e+01 115 105 89
4.730861e+00 1.182857e+01 -4.444339e+01 115 105 89
6.022927e+00 1.103327e+01 -4.098450e+01 109 109 100
3.866008e+00 1.138370e+01 -4.232575e+01 102 89 73
4.292063e+00 1.199747e+01 -4.363932e+01 110 100 82
4.292063e+00 1.199747e+01 -4.363932e+01 110 100 82
5.288007e+00 1.139006e+01 -4.086767e+01 167 160 150
4.193894e+00 1.171639e+01 -4.210635e+01 167 162 142
6.021514e+00 1.147621e+01 -4.051051e+01 163 157 145
3.760654e+00 1.191613e+01 -4.221025e+01 111 104 85
6.375248e+00 1.176362e+01 -4.112451e+01 167 155 140
6.330837e+00 1.215550e+01 -4.122185e+01 170 163 150
9.350735e+00 8.959001e+00 -2.754025e+01 149 174 198
8.830487e+00 9.266140e+00 -2.777344e+01 142 159 184
2.265139e+01 2.002497e+01 -4.946024e+01 98 77 56
2.265139e+01 2.002497e+01 -4.946024e+01 98 77 56
-2.082138e+00 -4.922081e+00 -1.081135e+01 67 76 89
-4.420559e+00 -5.057057e+00 -1.161159e+01 67 74 90
-4.413554e+00 -5.054447e+00 -1.172043e+01 71 85 92
-3.494767e+00 -4.352716e+00 -1.334832e+01 83 85 82
1.909678e+00 -1.555737e+00 -5.316150e+00 133 105 97
1.669788e+00 -1.566611e+00 -5.412185e+00 152 116 105
1.077914e+00 -1.599971e+00 -5.641413e+00 156 125 119
1.979664e+00 -1.482369e+00 -5.245077e+00 142 111 103
2.026592e+00 -1.471101e+00 -5.220339e+00 198 156 116
1.407346e+00 -1.509316e+00 -5.468474e+00 203 167 124
6.866989e-01 -1.601633e+00 -5.779902e+00 83 41 24
4.980945e-01 -1.631365e+00 -5.877743e+00 189 164 164
1.601667e+00 -1.488818e+00 -5.399904e+00 123 88 67
6.366005e-01 -1.607379e+00 -5.806239e+00 77 42 16
2.905895e-01 -1.653171e+00 -5.952878e+00 33 23 25
3.309661e-01 -1.642061e+00 -5.943645e+00 120 96 97
1.926597e-01 -1.651650e+00 -6.002499e+00 151 132 133
1.664766e-01 -1.651055e+00 -6.011967e+00 155 134 130
2.049416e+00 -1.403714e+00 -5.194051e+00 151 113 91
1.083173e+00 -1.500410e+00 -5.583472e+00 187 147 130
2.055937e+00 -1.368290e+00 -5.209571e+00 161 120 108
6.559964e-01 -1.507832e+00 -5.760570e+00 159 116 104
3.546722e-01 -1.529844e+00 -5.874633e+00 157 114 106
4.017149e-01 -1.518987e+00 -5.853585e+00 157 118 108
8.231362e-01 -1.450022e+00 -5.699480e+00 152 123 109
6.809603e-01 -1.405929e+00 -5.810621e+00 227 200 171
1.724689e+00 -1.255083e+00 -5.495170e+00 178 137 97
1.261181e+00 -1.303376e+00 -5.693534e+00 187 156 148
1.282697e+00 -1.182710e+00 -5.598356e+00 118 68 36
1.717348e+00 -1.100436e+00 -5.411530e+00 157 105 79
1.556460e+00 -1.103565e+00 -5.472817e+00 242 212 177
1.527191e+00 -1.107008e+00 -5.494420e+00 223 197 158
1.527191e+00 -1.107008e+00 -5.494420e+00 223 197 158
1.687398e+00 -1.070938e+00 -5.431545e+00 138 102 107
1.521964e-01 -1.196781e+00 -6.035328e+00 194 162 148
1.352390e+00 -1.059574e+00 -5.579141e+00 233 215 204
2.064735e+00 -9.862498e-01 -5.316133e+00 131 98 85
7.106505e-01 -1.096134e+00 -5.821364e+00 165 149 157
-1.392813e+00 -2.970856e+00 -1.456141e+01 140 154 179
-2.904909e+00 -3.067372e+00 -1.504007e+01 157 165 176
-3.582956e+00 -3.087982e+00 -1.538876e+01 138 151 169
-5.069366e+00 -3.217915e+00 -1.597235e+01 118 116 127
1.366774e-01 -1.070443e+00 -6.141148e+00 134 117 112
-6.020491e+00 -3.210753e+00 -1.634482e+01 117 126 141
2.402224e+00 -3.629809e-01 -4.896850e+00 12 13 15
2.197769e+00 -3.419873e-01 -5.010900e+00 66 81 94
-2.722871e-01 -4.753593e-01 -5.981205e+00 86 99 118
-6.746964e-02 -3.643810e-01 -5.928778e+00 67 76 91
-6.533769e+00 -1.822580e+00 -2.114427e+01 205 204 202
-9.379813e+00 -1.816973e+00 -2.228558e+01 71 65 67
2.435848e+00 -9.786319e-02 -4.981157e+00 121 138 165
2.293450e+00 -8.660311e-02 -5.027267e+00 129 153 181
2.293450e+00 -8.660311e-02 -5.027267e+00 129 153 181
-4.003006e-01 -1.870809e-01 -6.215894e+00 18 15 20
2.576986e+00 3.516239e-02 -5.111847e+00 111 83 77
-1.267900e-02 1.846944e-01 -6.473376e+00 140 112 98
-3.523882e+00 -3.159870e-01 -2.204728e+01 84 91 97
2.298989e+00 4.140219e-01 -5.202711e+00 226 194 169
9.995024e-01 1.152792e+00 -2.242425e+01 138 119 123
2.472138e+00 7.508685e-01 -5.138023e+00 147 114 101
2.011544e+00 2.066974e+00 -2.424647e+01 120 120 128
2.811478e+00 2.794060e+00 -2.621117e+01 134 132 137
4.153156e+00 6.448351e+00 -4.145510e+01 181 180 174
4.284972e+00 6.450514e+00 -4.132006e+01 178 180 175
4.284972e+00 6.450514e+00 -4.132006e+01 178 180 175
3.729408e+00 6.572382e+00 -4.178543e+01 123 125 122
4.214630e+00 6.788413e+00 -4.192206e+01 80 87 83
3.688743e+00 6.766184e+00 -4.187475e+01 123 127 123
6.914019e+00 7.075878e+00 -4.136793e+01 89 82 63
3.723989e+00 7.305198e+00 -4.183064e+01 129 129 121
4.178618e+00 7.321571e+00 -4.124417e+01 174 172 167
4.382592e+00 7.392404e+00 -4.153483e+01 178 178 171
4.258709e+00 7.551942e+00 -4.154491e+01 185 185 180
3.731286e+00 7.682691e+00 -4.199197e+01 104 109 102
4.183204e+00 7.957125e+00 -4.251329e+01 82 83 78
4.183204e+00 7.957125e+00 -4.251329e+01 82 83 78
6.437640e+00 7.865334e+00 -4.075579e+01 124 121 107
4.163374e+00 8.309551e+00 -4.239866e+01 95 95 91
4.098692e+00 8.405621e+00 -4.142152e+01 183 182 180
4.155897e+00 8.874870e+00 -4.260599e+01 70 72 69
6.028029e+00 8.604975e+00 -4.073582e+01 77 81 82
6.028029e+00 8.604975e+00 -4.073582e+01 77 81 82
7.930124e+00 6.321315e+00 -2.766636e+01 65 67 77
4.611170e+00 9.091739e+00 -4.170202e+01 165 162 150
4.642903e+00 9.367948e+00 -4.272965e+01 97 90 80
4.097900e+00 9.410798e+00 -4.246681e+01 95 91 82
4.120339e+00 9.611641e+00 -4.252285e+01 77 77 69
4.120339e+00 9.611641e+00 -4.252285e+01 77 77 69
4.078125e+00 9.757172e+00 -4.185150e+01 174 169 163
4.078125e+00 9.757172e+00 -4.185150e+01 174 169 163
6.828884e+00 9.904856e+00 -4.189631e+01 99 83 65
5.931905e+00 9.701154e+00 -4.080550e+01 65 72 68
5.976358e+00 9.759672e+00 -4.107077e+01 65 72 68
4.135008e+00 9.951469e+00 -4.184339e+01 175 171 165
4.086690e+00 1.019696e+01 -4.267526e+01 90 89 81
4.093311e+00 1.021016e+01 -4.273149e+01 90 89 81
4.044133e+00 1.031057e+01 -4.188470e+01 173 168 165
4.049888e+00 1.051368e+01 -4.241486e+01 99 96 85
4.699646e+00 1.100456e+01 -4.422393e+01 97 93 84
3.985650e+00 1.074034e+01 -4.273856e+01 103 101 87
5.907753e+00 1.045924e+01 -4.092485e+01 102 102 91
5.907753e+00 1.045924e+01 -4.092485e+01 102 102 91
4.120550e+00 1.107730e+01 -4.323407e+01 103 99 84
4.159076e+00 1.130868e+01 -4.380801e+01 163 164 158
4.050616e+00 1.134291e+01 -4.281746e+01 93 87 74
4.050616e+00 1.134291e+01 -4.281746e+01 93 87 74
5.617907e+00 1.109869e+01 -4.114554e+01 173 175 169
6.547963e+00 1.123643e+01 -4.155315e+01 117 104 86
4.226860e+00 1.161184e+01 -4.252065e+01 166 161 150
6.779932e+00 1.158959e+01 -4.211540e+01 86 68 54
4.004564e+00 1.173681e+01 -4.277502e+01 119 108 90
3.952738e+00 1.171207e+01 -4.227820e+01 162 156 141
4.015231e+00 1.192971e+01 -4.277089e+01 105 101 89
3.918154e+00 1.205681e+01 -4.265424e+01 121 115 97
-1.450344e+00 -4.908620e+00 -1.089874e+01 66 73 89
-1.238396e+00 -4.888779e+00 -1.088937e+01 64 73 88
-2.033308e+00 -4.914714e+00 -1.096792e+01 70 77 94
-1.528826e+00 -4.896212e+00 -1.107183e+01 66 74 87
-1.699211e+00 -4.909721e+00 -1.114457e+01 76 81 101
-1.700985e+00 -4.912693e+00 -1.115195e+01 76 81 101
-2.282353e+00 -4.935574e+00 -1.117402e+01 70 77 96
-2.434020e+00 -4.944821e+00 -1.123579e+01 68 75 94
-3.171934e+00 -5.041795e+00 -1.190957e+01 72 81 93
-3.171934e+00 -5.041795e+00 -1.190957e+01 72 81 93
-6.120459e+00 -5.308855e+00 -1.408968e+01 66 70 81
-2.019738e+00 -4.028349e+00 -1.260465e+01 67 71 100
-1.924886e+00 -3.942344e+00 -1.252711e+01 148 154 188
-3.192583e+00 -4.084686e+00 -1.308130e+01 139 146 165
-2.693846e+00 -3.968560e+00 -1.294556e+01 126 143 148
1.945015e+00 -1.491043e+00 -5.252847e+00 111 65 48
7.680746e-01 -1.616306e+00 -5.769642e+00 198 177 189
6.443579e-01 -1.626943e+00 -5.823925e+00 126 71 60
1.844896e-01 -1.668236e+00 -6.021863e+00 43 31 40
1.258281e+00 -1.521193e+00 -5.537790e+00 208 163 141
2.700737e-01 -1.644231e+00 -5.969135e+00 106 73 69
2.434043e+00 -1.321674e+00 -4.884424e+00 42 51 58
1.178978e+00 -1.491054e+00 -5.548942e+00 165 131 109
2.119326e+00 -1.385628e+00 -5.169866e+00 199 153 120
2.504356e+00 -1.295601e+00 -4.871195e+00 69 75 81
8.408868e-01 -1.518188e+00 -5.686613e+00 208 174 156
1.108243e+00 -1.485259e+00 -5.580415e+00 149 104 75
1.235732e+00 -1.451219e+00 -5.517679e+00 236 208 173
2.066120e+00 -1.360900e+00 -5.216277e+00 230 211 191
8.797383e-01 -1.449468e+00 -5.679400e+00 159 125 115
1.296729e+00 -1.402061e+00 -5.518321e+00 241 220 193
1.577969e+00 -1.340470e+00 -5.453279e+00 211 186 154
1.071193e+00 -1.390320e+00 -5.644808e+00 231 212 198
1.388943e+00 -1.307898e+00 -5.610102e+00 204 190 190
1.632309e+00 -1.263542e+00 -5.514086e+00 127 84 59
1.618812e+00 -1.264322e+00 -5.524163e+00 141 95 67
1.410079e+00 -1.261709e+00 -5.617230e+00 113 62 35
8.795017e-01 -1.312616e+00 -5.826231e+00 135 96 69
1.376544e-01 -1.364151e+00 -6.112786e+00 34 34 34
5.552761e-01 -1.188893e+00 -5.857125e+00 194 136 91
2.740208e-01 -1.223824e+00 -5.999936e+00 158 95 64
6.853274e-01 -1.168027e+00 -5.818424e+00 169 123 97
1.871026e+00 -1.015674e+00 -5.394340e+00 161 132 123
1.551495e+00 -1.024336e+00 -5.530694e+00 192 159 139
6.507983e-01 -1.065328e+00 -5.902369e+00 189 141 109
-3.172791e+00 -2.116977e+00 -1.741172e+01 110 101 102
-2.705276e+00 -2.002624e+00 -1.718263e+01 137 145 164
-2.349682e-01 -3.750383e-01 -5.906870e+00 24 31 49
-5.595519e-01 -3.490472e-01 -6.028213e+00 90 102 119
2.362186e+00 -9.347461e-02 -5.005562e+00 32 41 66
2.358215e+00 1.832519e-01 -5.198639e+00 238 207 179
2.469924e+00 2.082945e-01 -5.121583e+00 148 178 181
2.400432e+00 2.198954e-01 -5.157308e+00 162 148 138
-1.609656e+00 2.705690e-02 -2.114297e+01 102 104 113
2.476885e+00 7.737559e-01 -5.174563e+00 147 109 98
2.449210e+00 3.287457e+00 -2.612922e+01 109 119 128
3.695019e+00 7.880223e+00 -4.211526e+01 110 110 105
3.590196e+00 1.069126e+01 -4.248491e+01 100 102 91
5.052495e+00 1.177214e+01 -4.480372e+01 109 106 99
5.052495e+00 1.177214e+01 -4.480372e+01 109 106 99
8.217708e+00 9.703995e+00 -2.785956e+01 71 65 65
-2.913810e+00 -5.068073e+00 -1.080221e+01 105 88 123
-1.223915e+00 -4.903454e+00 -1.126874e+01 72 77 97
-2.278203e+00 -4.999357e+00 -1.188336e+01 113 123 134
-3.417596e+00 -5.131541e+00 -1.286969e+01 127 136 151
-2.858302e+00 -3.950223e+00 -1.301240e+01 146 153 159
2.094929e+00 -1.482221e+00 -5.213613e+00 150 105 99
1.817746e+00 -1.484194e+00 -5.314045e+00 196 153 109
1.779489e+00 -1.483902e+00 -5.325331e+00 200 156 108
9.947427e-01 -1.566866e+00 -5.645728e+00 147 106 91
2.466730e-01 -1.642759e+00 -5.969674e+00 108 83 78
1.332323e+00 -1.477854e+00 -5.486306e+00 244 218 191
1.332323e+00 -1.477854e+00 -5.486306e+00 244 218 191
1.974294e+00 -1.385535e+00 -5.239493e+00 240 207 188
9.362542e-01 -1.482943e+00 -5.653405e+00 241 203 159
5.731457e-01 -1.484796e+00 -5.786448e+00 158 106 89
5.702022e-01 -1.475673e+00 -5.787315e+00 228 189 180
7.032330e-01 -1.460657e+00 -5.742552e+00 134 89 65
1.914895e-01 -1.514606e+00 -5.936554e+00 130 85 70
6.181557e-01 -1.467073e+00 -5.775487e+00 137 91 70
1.843093e+00 -1.336276e+00 -5.334418e+00 166 121 102
4.241344e-01 -1.477951e+00 -5.859924e+00 210 174 156
4.399806e-01 -1.470309e+00 -5.851346e+00 136 94 66
1.605795e+00 -1.347837e+00 -5.452867e+00 145 117 103
-3.569844e-01 -1.464845e+00 -5.993172e+00 55 65 77
8.512271e-01 -1.389775e+00 -5.747958e+00 127 89 58
1.486413e-01 -1.357962e+00 -6.112963e+00 143 144 146
1.889182e+00 -1.094966e+00 -5.338795e+00 122 77 54
-2.092046e+00 -3.427263e+00 -1.508478e+01 134 137 142
1.866974e+00 -1.084484e+00 -5.353468e+00 227 192 165
1.711818e+00 -1.055394e+00 -5.436331e+00 113 94 99
1.144778e+00 -1.106296e+00 -5.661819e+00 237 217 208
2.103254e+00 -9.914441e-01 -5.276037e+00 98 85 91
1.029947e+00 -1.063902e+00 -5.708880e+00 218 190 179
1.318146e+00 -1.024957e+00 -5.627869e+00 158 121 96
3.389616e-01 -1.089921e+00 -6.009510e+00 225 186 136
1.618472e+00 -9.854431e-01 -5.563882e+00 167 127 85
7.492246e-01 -1.046578e+00 -5.860784e+00 235 195 144
-1.932663e-01 -1.000055e+00 -5.984590e+00 119 135 151
-2.980321e-01 -7.075115e-01 -6.032410e+00 35 50 64
2.412607e+00 -3.457888e-01 -4.899551e+00 32 31 36
-4.362534e-01 -1.746765e-01 -6.219499e+00 100 77 70
-3.627073e-01 -9.368649e-02 -6.280403e+00 192 189 198
2.535622e+00 7.844893e-02 -5.150551e+00 151 123 123
2.519184e+00 7.993277e-02 -5.159075e+00 153 125 128
-9.246551e-02 2.104751e-01 -6.330667e+00 165 137 104
-3.916989e-01 4.853762e-01 -6.152352e+00 149 98 84
1.608811e+00 -1.498415e+00 -5.388461e+00 211 178 147
1.608811e+00 -1.498415e+00 -5.388461e+00 211 178 147
6.982575e-01 -1.532264e+00 -5.741372e+00 132 79 45
1.342250e+00 -1.369363e+00 -5.524514e+00 229 203 187
1.195461e+00 -1.384540e+00 -5.599473e+00 229 192 177
5.220972e-02 -1.477476e+00 -6.004117e+00 130 92 96
1.139612e+00 -1.371791e+00 -5.630528e+00 146 108 63
5.547381e-01 -1.416479e+00 -5.844456e+00 217 189 173
1.834403e+00 -1.249322e+00 -5.458995e+00 195 138 86
1.378887e+00 -1.247005e+00 -5.616756e+00 93 45 24
9.444163e-01 -1.175498e+00 -5.723341e+00 164 117 68
3.566182e-01 -1.213550e+00 -5.954866e+00 191 139 94
7.415342e-01 -1.167903e+00 -5.800439e+00 162 112 69
1.343290e+00 -1.068024e+00 -5.575243e+00 168 141 134
2.799620e-01 -1.163991e+00 -5.988234e+00 214 193 187
1.044400e+00 -1.082382e+00 -5.691980e+00 194 169 168
1.045208e+00 -1.059324e+00 -5.726664e+00 158 126 118
2.314412e+00 -8.847928e-01 -4.971620e+00 67 81 101
2.065587e-01 -1.109083e+00 -6.035400e+00 128 104 107
-2.664959e-01 -1.505022e-01 -6.193475e+00 118 92 86
-1.040853e-01 2.208946e-01 -6.321180e+00 156 142 121
-3.441122e-01 9.782512e-02 -6.073394e+00 248 248 253
2.019192e+00 -1.382107e+00 -5.250891e+00 214 179 158
2.171112e+00 -1.200363e+00 -5.347324e+00 19 17 20
-9.063258e-01 -3.930096e-01 -6.653715e+00 184 178 178
2.205259e+00 3.835267e-01 -5.327373e+00 251 225 195
-1.056323e-01 3.591142e-01 -6.298893e+00 164 245 249
-3.035804e-01 6.701595e-01 -6.416171e+00 255 229 199
-2.040882e+00 -3.206768e+00 -1.492604e+01 54 62 73
-3.113926e+00 -3.258669e+00 -1.529818e+01 57 67 79
2.362372e+00 -2.857348e-01 -4.939525e+00 13 17 20
2.807084e-01 -3.814940e-01 -6.203652e+00 29 30 34
-9.293244e+00 -1.543569e+00 -2.217642e+01 31 32 35
-1.552889e+00 -5.051353e+00 -1.246424e+01 115 125 145
-2.822132e+00 -4.466748e+00 -1.318312e+01 185 185 193
1.161971e-01 -1.151948e+00 -6.068423e+00 158 147 182
1.161971e-01 -1.151948e+00 -6.068423e+00 158 147 182
-3.781252e+00 -3.271120e+00 -1.549028e+01 73 83 92
2.380640e+00 2.985154e-02 -5.258271e+00 29 24 20
-8.045921e+00 -5.069535e-01 -2.388644e+01 45 49 52
-8.611978e+00 -5.039770e-01 -2.409091e+01 34 35 36
2.269481e+00 5.615945e-01 -5.428367e+00 56 49 34
-2.543027e-01 5.321102e-01 -6.272335e+00 94 62 48
6.520778e-01 -1.445554e+00 -5.781746e+00 245 215 185
-1.170301e-02 -1.497244e+00 -5.952776e+00 19 22 27
-2.492340e-01 -4.153210e-01 -5.979972e+00 21 25 29
7.749708e+00 5.406477e+00 -2.674734e+01 22 23 25
1.814631e+00 -1.274700e+00 -5.443632e+00 183 169 165
1.461296e+00 -1.306323e+00 -5.626805e+00 238 216 202
5.760413e-01 -1.349742e+00 -5.942484e+00 255 253 255
1.444527e+00 -1.126101e+00 -5.522904e+00 213 176 133
2.119407e+00 -6.180857e-01 -5.560638e+00 77 76 53
2.470574e+00 -2.155320e-01 -5.015854e+00 129 149 173
-2.148953e-01 -8.409742e-02 -6.242543e+00 95 68 61
2.234604e+00 4.793974e-01 -5.342831e+00 252 222 194
-6.669945e+00 1.140916e+01 -3.126794e+01 112 106 95
-3.426265e+00 -4.341109e+00 -1.337923e+01 62 72 82
-2.446368e+00 -4.081442e+00 -1.280744e+01 45 55 68
1.709807e+00 -1.391272e+00 -5.366613e+00 226 200 176
1.594870e+00 -1.389986e+00 -5.360993e+00 209 184 161
5.414308e-02 -1.551061e+00 -6.011296e+00 158 106 86
3.147198e-01 -1.475725e+00 -5.903111e+00 242 223 223
3.147198e-01 -1.475725e+00 -5.903111e+00 242 223 223
8.065152e-01 -1.431277e+00 -6.042483e+00 153 114 103
2.942645e-01 -8.218679e-01 -6.543377e+00 28 28 27
2.047662e-01 -7.071740e-01 -6.325480e+00 21 21 19
-5.451137e-01 -3.618110e-01 -6.033758e+00 91 103 127
-1.824490e-01 -1.296940e-01 -6.170235e+00 126 92 83
2.471806e+00 5.015276e-01 -5.214688e+00 160 240 249
2.480388e+00 3.333813e+00 -2.616810e+01 188 193 202
7.805980e+00 7.012247e+00 -2.745140e+01 80 93 112
-3.395085e+00 -5.145271e+00 -1.328785e+01 85 95 110
-1.489318e+00 -4.223999e+00 -1.261888e+01 39 46 55
5.241842e-01 -1.307523e+00 -5.964161e+00 76 40 29
2.611434e-01 -1.328144e+00 -6.086561e+00 75 39 38
-3.557300e-01 -7.853230e-01 -6.047407e+00 224 245 255
-1.730191e+00 -2.239429e+00 -1.698931e+01 61 69 81
-1.664494e-01 -3.766890e-01 -5.951420e+00 24 29 36
2.125549e+00 -1.160159e-01 -5.265320e+00 19 23 26
2.340887e+00 -6.351358e-02 -5.096977e+00 40 43 50
-1.418027e-01 -1.511905e-01 -6.202611e+00 14 13 11
-4.800821e-01 -3.928823e-02 -6.316940e+00 222 168 121
5.726293e+00 -4.892156e-01 -2.085958e+01 113 91 77
1.544865e-01 1.625301e-01 -6.554810e+00 111 85 65
1.544865e-01 1.625301e-01 -6.554810e+00 111 85 65
2.372721e+00 4.153784e-01 -5.241954e+00 232 188 149
2.334170e+00 5.560463e-01 -5.432438e+00 134 237 235
-6.983999e+00 7.738974e-01 -2.563949e+01 136 138 142
2.410293e+00 6.619051e-01 -5.223644e+00 222 156 98
2.851259e+00 3.018606e+00 -2.623119e+01 49 48 49
2.787300e+00 3.191621e+00 -1.379300e+01 137 92 54
1.094174e+01 7.299067e+00 -2.697200e+01 98 107 127
7.446568e+00 1.041274e+01 -2.875232e+01 175 155 128
-2.236153e+00 -5.098850e+00 -1.263576e+01 88 95 112
-2.236153e+00 -5.098850e+00 -1.263576e+01 88 95 112
-2.295833e+00 -5.072192e+00 -1.283419e+01 95 109 120
1.760290e+00 -1.762601e+00 -5.603660e+00 68 66 54
8.724020e-01 -1.572851e+00 -5.672459e+00 101 53 39
8.288802e-01 -1.581948e+00 -5.720313e+00 105 58 42
1.396246e+00 -1.432074e+00 -5.476072e+00 165 129 111
-2.640537e+00 -4.071502e+00 -1.476728e+01 142 146 155
3.521304e-01 -1.449068e+00 -5.630508e+00 159 111 103
1.756054e+00 -1.342324e+00 -5.365250e+00 208 189 172
1.360323e-01 -1.509265e+00 -5.971710e+00 136 94 95
7.799415e-01 -1.417274e+00 -5.710324e+00 152 122 114
9.496101e-01 -1.379898e+00 -5.616899e+00 230 209 197
9.025445e-01 -1.391576e+00 -5.687252e+00 202 175 157
1.645535e+00 -1.332106e+00 -5.485822e+00 142 117 110
1.209002e+00 -1.356620e+00 -5.643044e+00 158 111 88
1.206976e+00 -1.353341e+00 -5.627292e+00 158 111 88
7.115183e-01 -1.222268e+00 -5.813131e+00 86 44 30
4.514953e-01 -1.174232e+00 -5.933361e+00 185 136 93
1.608427e-01 -1.063552e+00 -6.152427e+00 135 113 103
2.816942e+00 -1.668807e+00 -1.380163e+01 61 79 98
2.816464e+00 -1.668555e+00 -1.379966e+01 61 79 98
-3.114912e+00 -2.150061e+00 -1.740792e+01 23 26 32
1.535200e-01 -2.637976e-01 -6.141024e+00 81 76 75
2.593216e+00 4.560342e-01 -5.175581e+00 139 234 238
-2.116545e-01 5.151913e-01 -6.285584e+00 74 54 40
2.545996e+00 5.492352e-01 -5.166755e+00 9 153 148
2.538206e+00 6.769202e-01 -1.347416e+01 58 75 95
2.409317e+00 2.193323e+00 -2.400886e+01 40 47 51
6.087813e+00 2.593585e+00 -2.198358e+01 81 67 56
8.587731e+00 4.161970e+00 -2.761430e+01 29 37 42
1.042369e+01 5.763482e+00 -2.690975e+01 88 104 125
1.043517e+01 5.769273e+00 -2.694230e+01 88 104 125
1.044531e+01 5.963032e+00 -2.701110e+01 92 105 121
-3.283092e+00 -5.039283e+00 -1.093488e+01 128 139 160
-1.987375e+00 -5.047621e+00 -1.269042e+01 99 105 119
1.306605e+00 -1.598535e+00 -5.536314e+00 23 22 27
1.014532e+00 -1.540250e+00 -5.625709e+00 172 141 133
9.297688e-01 -1.554208e+00 -5.674864e+00 162 123 121
9.107900e-01 -1.475208e+00 -5.645419e+00 173 131 118
-1.730018e+00 -4.047645e+00 -1.476416e+01 72 84 100
1.539532e+00 -1.389043e+00 -5.414045e+00 219 196 179
-2.309801e+00 -4.095272e+00 -1.501867e+01 80 90 102
2.112586e+00 -1.300090e+00 -5.287151e+00 164 162 171
1.529270e-01 -1.441346e+00 -5.980045e+00 156 134 142
3.414815e-01 -1.429408e+00 -5.961392e+00 204 177 174
8.999400e-01 -1.377406e+00 -5.858650e+00 186 145 123
5.112004e-01 -1.338527e+00 -5.963238e+00 202 199 207
6.773663e-01 -1.322325e+00 -5.906533e+00 139 107 98
1.668305e+00 -1.068325e+00 -5.489563e+00 232 222 221
-2.933256e+00 -3.362184e+00 -1.533338e+01 52 56 64
2.048787e+00 -1.033590e+00 -5.349434e+00 219 202 196
2.048787e+00 -1.033590e+00 -5.349434e+00 219 202 196
6.021892e-01 -1.146163e+00 -5.879734e+00 154 116 112
1.417901e+00 -1.063485e+00 -5.574404e+00 226 208 197
1.316719e+00 -1.039832e+00 -5.615353e+00 235 203 162
6.175981e-02 -1.134845e+00 -6.100880e+00 23 27 28
1.654175e+00 -9.882926e-01 -5.538814e+00 173 137 105
1.316097e+00 -1.012983e+00 -5.658048e+00 220 191 157
1.423296e+00 -9.895753e-01 -5.617953e+00 173 131 92
2.087333e+00 -9.487328e-01 -5.433648e+00 84 47 33
1.023083e+00 -1.017345e+00 -5.802952e+00 167 119 79
-4.932992e+00 -3.235949e+00 -1.599911e+01 151 134 147
-6.308393e+00 -3.308947e+00 -1.647714e+01 26 29 36
-7.873590e+00 -3.415189e+00 -1.716695e+01 24 28 31
2.191409e+00 -6.412944e-01 -4.964421e+00 87 111 139
2.417427e+00 -5.506751e-01 -4.947632e+00 22 34 47
-5.164208e-02 -7.166781e-01 -6.011255e+00 54 66 82
-8.617581e-02 -7.124746e-01 -6.009447e+00 61 77 94
-8.617581e-02 -7.124746e-01 -6.009447e+00 61 77 94
-1.215742e-01 -7.209315e-01 -6.062021e+00 49 66 84
-1.215742e-01 -7.209315e-01 -6.062021e+00 49 66 84
2.442552e+00 -4.795637e-01 -4.970152e+00 14 22 30
2.444599e+00 -4.802773e-01 -4.975101e+00 14 22 30
2.156838e+00 -3.506157e-01 -5.032427e+00 54 66 82
2.270227e+00 -3.404866e-01 -4.968047e+00 67 85 105
2.270227e+00 -3.404866e-01 -4.968047e+00 67 85 105
-4.591751e-01 -3.556714e-01 -5.974639e+00 126 141 174
-6.457976e-01 -2.769440e-01 -6.486352e+00 64 67 72
2.391121e+00 -8.334373e-04 -5.506008e+00 37 25 21
2.372183e+00 7.853760e-02 -5.220044e+00 126 89 70
7.145827e-01 -1.036234e-01 -8.715488e+00 183 135 87
2.460135e+00 1.910285e-01 -5.139599e+00 228 234 243
9.342965e-02 1.934729e-01 -6.445518e+00 156 127 104
-1.735137e-02 3.117002e-01 -6.333854e+00 163 128 98
2.588003e+00 4.860648e-01 -5.175366e+00 26 155 145
-4.466737e-01 5.211933e-01 -6.285622e+00 168 134 115
-3.531761e-01 6.044290e-01 -6.355810e+00 165 130 111
3.345723e+00 9.327557e-01 -1.548860e+01 81 99 125
3.367930e+00 1.021121e+00 -1.562179e+01 88 106 128
3.373595e+00 1.158032e+00 -1.566132e+01 99 114 143
3.373595e+00 1.158032e+00 -1.566132e+01 99 114 143
8.781875e+00 1.996537e+00 -2.757215e+01 59 65 78
2.404673e+00 7.874018e-01 -5.269533e+00 46 37 38
3.133013e+00 1.328850e+00 -1.507164e+01 86 107 132
3.431137e+00 1.450747e+00 -1.576164e+01 27 38 51
3.364837e+00 1.517245e+00 -1.571317e+01 102 116 143
3.328672e+00 1.954588e+00 -1.563721e+01 96 110 133
4.097801e+00 3.146369e+00 -1.770976e+01 71 86 106
2.646959e+00 2.609907e+00 -1.380620e+01 154 109 76
2.877347e+00 2.935615e+00 -1.443411e+01 141 96 62
3.133647e+00 3.561511e+00 -1.534595e+01 136 92 62
4.355091e+00 4.795083e+00 -1.828247e+01 70 44 27
-1.778005e+00 -4.892062e+00 -1.047127e+01 137 146 157
-1.827041e+00 -4.889835e+00 -1.047571e+01 144 154 166
-2.715888e+00 -5.122498e+00 -1.294316e+01 140 153 170
-1.341060e+00 -3.999261e+00 -1.231895e+01 61 71 88
-1.092922e+00 -3.933275e+00 -1.219952e+01 127 139 164
-1.089680e+00 -3.901964e+00 -1.221336e+01 141 151 184
-2.649111e+00 -4.094669e+00 -1.289552e+01 60 73 88
-4.439641e+00 -4.357317e+00 -1.371934e+01 103 111 122
-3.540635e+00 -4.066957e+00 -1.321816e+01 136 143 165
1.281379e+00 -1.525174e+00 -5.528992e+00 209 172 146
8.977343e-01 -1.532653e+00 -5.610695e+00 166 131 128
2.024278e+00 -1.423702e+00 -5.225298e+00 212 175 138
1.000255e+00 -1.487410e+00 -5.614885e+00 170 136 109
2.057741e-01 -1.588283e+00 -5.967578e+00 177 143 137
6.079601e-01 -1.531871e+00 -5.797438e+00 222 188 178
8.053988e-02 -1.597501e+00 -6.020108e+00 133 95 86
5.128510e-01 -1.526702e+00 -5.806541e+00 241 201 200
5.110335e-01 -1.520651e+00 -5.785319e+00 241 201 200
1.564079e+00 -1.389821e+00 -5.425891e+00 214 194 179
1.014620e+00 -1.445711e+00 -5.640520e+00 176 139 111
1.004467e+00 -1.425470e+00 -5.679603e+00 166 137 128
-3.291692e+00 -4.141990e+00 -1.540795e+01 90 97 110
7.520409e-02 -1.498704e+00 -6.015651e+00 128 85 84
8.332327e-01 -1.356257e+00 -5.822213e+00 176 139 135
1.650917e+00 -1.232219e+00 -5.493198e+00 96 44 23
1.855279e+00 -1.119564e+00 -5.358007e+00 127 62 31
1.393598e+00 -1.102061e+00 -5.535918e+00 149 115 106
3.397152e-01 -1.193457e+00 -5.944296e+00 117 67 61
1.110576e+00 -1.108922e+00 -5.657693e+00 191 166 153
3.370403e-01 -1.178955e+00 -5.955349e+00 181 143 119
5.551322e-01 -1.146808e+00 -5.890937e+00 160 119 121
1.423102e-01 -1.162833e+00 -6.018388e+00 217 196 191
2.771850e-01 -1.164227e+00 -6.094225e+00 243 240 255
1.944991e-01 -1.136058e+00 -6.032072e+00 216 213 221
1.629073e+00 -9.859950e-01 -5.533503e+00 171 131 96
-3.005455e+00 -3.099081e+00 -1.517303e+01 157 159 175
2.106080e+00 -9.440373e-01 -5.376081e+00 128 110 104
9.724020e-01 -1.039312e+00 -5.844710e+00 195 164 128
4.637465e-01 -1.040036e+00 -6.072893e+00 139 99 72
-5.928599e+00 -3.262706e+00 -1.634776e+01 142 137 147
-2.224018e+00 -3.089555e+00 -1.718211e+01 94 94 103
-4.023381e-01 -8.009104e-01 -5.991680e+00 31 39 55
-5.525425e-01 -7.529354e-01 -6.120198e+00 16 22 25
-2.961134e-01 -6.108589e-01 -6.057853e+00 24 35 53
2.316509e+00 -3.955430e-01 -4.924331e+00 60 74 95
2.316509e+00 -3.955430e-01 -4.924331e+00 60 74 95
-2.193587e+00 -2.012792e+00 -1.701941e+01 165 164 169
-2.367845e+00 -2.025085e+00 -1.708572e+01 159 167 177
2.074083e+00 -3.651730e-01 -5.174055e+00 49 57 64
-1.871168e-01 -3.866650e-01 -5.865977e+00 55 57 68
2.264554e+00 -1.065373e-01 -5.051625e+00 83 102 128
2.321085e+00 -8.151273e-02 -5.008819e+00 112 130 158
2.480753e+00 -7.252196e-02 -4.980570e+00 77 89 107
-3.949410e-01 3.298821e-01 -6.310108e+00 142 238 239
1.786076e+00 8.249264e-01 -1.106855e+01 149 98 54
1.855573e+00 1.187506e+00 -2.196631e+01 129 124 134
4.155066e+00 1.459035e+00 -1.756485e+01 77 95 116
1.814214e+00 1.447846e+00 -1.160271e+01 184 141 96
3.644331e+00 4.307818e+00 -1.672752e+01 146 108 75
-1.204578e+00 -4.882311e+00 -1.085912e+01 66 72 88
-1.792240e+00 -5.048838e+00 -1.266884e+01 105 109 127
-3.684839e-01 -2.292533e+00 -5.942199e+00 58 66 81
-1.306160e+00 -4.373021e+00 -1.255085e+01 122 120 122
1.585469e+00 -3.547378e+00 -1.066411e+01 76 82 91
-2.176913e+00 -4.183764e+00 -1.280472e+01 124 147 163
-2.669048e+00 -4.059252e+00 -1.287138e+01 136 143 161
-2.668997e+00 -4.038523e+00 -1.289786e+01 112 118 144
-5.914163e+00 -4.249143e+00 -1.419455e+01 119 111 128
3.057309e-01 -1.643740e+00 -5.965223e+00 149 120 116
1.864497e+00 -1.433618e+00 -5.273900e+00 117 82 80
1.635340e+00 -1.450390e+00 -5.339872e+00 218 175 137
1.708185e+00 -1.452968e+00 -5.353287e+00 210 168 126
1.547632e-01 -1.615799e+00 -5.948906e+00 79 40 23
4.287466e-01 -1.570075e+00 -5.835822e+00 127 70 57
7.778895e-01 -1.502810e+00 -5.716214e+00 225 190 155
7.772233e-01 -1.501480e+00 -5.712229e+00 225 190 155
1.204566e+00 -1.444478e+00 -5.535904e+00 229 200 186
8.731507e-02 -1.565115e+00 -5.979685e+00 81 40 38
1.666125e-01 -1.553381e+00 -5.960184e+00 158 120 104
2.031795e+00 -1.344686e+00 -5.277805e+00 192 174 167
1.016690e+00 -1.419034e+00 -5.617408e+00 231 207 198
5.578836e-01 -1.422228e+00 -5.844753e+00 209 188 176
1.317866e+00 -1.358290e+00 -5.611188e+00 154 121 96
1.016665e-01 -1.456074e+00 -5.986003e+00 191 190 204
1.019058e-01 -1.456506e+00 -5.988823e+00 191 190 204
9.446861e-01 -1.364490e+00 -5.741419e+00 157 114 108
2.951258e-01 -1.407686e+00 -5.973690e+00 124 96 92
1.282084e+00 -1.289374e+00 -5.673959e+00 185 151 119
4.453808e-01 -1.371859e+00 -5.989352e+00 143 131 145
6.290401e-01 -1.327567e+00 -5.931605e+00 146 115 107
5.549469e-01 -1.330019e+00 -5.999650e+00 184 158 148
1.174709e+00 -1.154223e+00 -5.618193e+00 151 105 70
2.101212e+00 -1.034863e+00 -5.279679e+00 211 198 201
2.101212e+00 -1.034863e+00 -5.279679e+00 211 198 201
4.579498e-01 -1.154044e+00 -5.881922e+00 213 181 174
-2.878709e+00 -3.328111e+00 -1.532713e+01 86 103 118
5.213845e-01 -1.147576e+00 -5.916224e+00 121 96 102
4.809891e-01 -1.146099e+00 -5.903927e+00 126 98 98
8.957408e-01 -1.101021e+00 -5.772237e+00 199 179 183
1.054056e+00 -1.075960e+00 -5.692055e+00 240 225 217
1.385441e-01 -1.144134e+00 -6.061523e+00 248 242 254
1.824011e-01 -1.134730e+00 -6.073380e+00 122 109 113
7.359662e-01 -1.074870e+00 -5.828115e+00 182 137 103
-1.803779e+00 -3.038912e+00 -1.474102e+01 137 135 149
-2.114652e+00 -3.011769e+00 -1.464031e+01 119 121 133
1.134733e+00 -1.025324e+00 -5.714991e+00 191 154 112
5.967596e-01 -1.061883e+00 -5.904871e+00 210 175 125
-2.815268e+00 -3.046026e+00 -1.507614e+01 150 163 182
-3.846079e+00 -3.136549e+00 -1.550220e+01 138 138 154
1.633104e-01 -1.056941e+00 -6.162608e+00 135 126 114
2.006195e-01 -1.050144e+00 -6.229814e+00 112 81 63
-6.270837e+00 -3.230036e+00 -1.646261e+01 114 124 134
-1.556009e-01 -7.065208e-01 -6.017597e+00 124 143 156
-2.330093e-01 -7.050088e-01 -5.988948e+00 124 146 167
2.318627e+00 -4.890179e-01 -4.987811e+00 68 84 109
-2.774498e-01 -6.240738e-01 -6.033842e+00 76 92 117
-2.337564e-01 -5.905879e-01 -6.037661e+00 80 93 111
-3.324265e-01 -5.805087e-01 -6.024494e+00 64 79 98
2.356946e+00 -3.982291e-01 -4.949036e+00 58 71 87
2.429542e+00 -3.603217e-01 -4.887609e+00 116 117 112
2.429542e+00 -3.603217e-01 -4.887609e+00 116 117 112
-3.215204e+00 -2.059730e+00 -1.728816e+01 137 135 147
-1.376626e-01 -4.685095e-01 -5.965228e+00 57 69 80
-4.417259e-01 -3.656390e-01 -5.919167e+00 41 53 77
-4.417259e-01 -3.656390e-01 -5.919167e+00 41 53 77
-4.522743e-01 -3.467260e-01 -6.022572e+00 66 81 112
2.199402e+00 -1.052234e-01 -5.118783e+00 25 32 38
-8.928433e+00 -1.406712e+00 -2.181348e+01 110 106 102
-2.680743e-01 -9.561989e-02 -6.222366e+00 96 68 64
-1.895529e+00 -1.024737e+00 -1.905259e+01 167 171 186
2.594419e+00 6.303708e-02 -5.159250e+00 162 126 99
2.329753e+00 1.376603e-01 -5.364830e+00 152 121 94
-6.869683e-01 9.926171e-02 -6.532451e+00 231 202 172
1.304747e+00 8.584660e-02 -9.804187e+00 139 98 66
-5.167355e-01 2.889808e-01 -6.441493e+00 214 176 140
-4.230897e-01 3.534430e-01 -6.175033e+00 87 81 79
-1.784790e-01 5.013043e-01 -6.335653e+00 191 156 121
-4.469264e-01 5.361118e-01 -6.398904e+00 162 130 112
-4.597895e-01 5.435729e-01 -6.375624e+00 255 236 205
-2.983740e-01 6.033295e-01 -6.226891e+00 146 107 90
1.752499e+00 1.193181e+00 -2.203938e+01 106 102 109
-1.057468e+00 -4.867777e+00 -1.061225e+01 68 77 93
-2.083434e+00 -4.872462e+00 -1.080044e+01 72 73 82
-1.236179e+00 -4.875487e+00 -1.085873e+01 64 73 88
-2.035151e+00 -4.920889e+00 -1.098185e+01 70 77 94
-2.398623e+00 -4.958691e+00 -1.125626e+01 62 75 93
-3.312295e+00 -4.279555e+00 -1.330424e+01 97 114 142
7.563300e-02 -1.855642e+00 -6.024627e+00 63 60 65
2.128885e+00 -1.490941e+00 -5.182607e+00 67 61 65
1.947810e+00 -1.478236e+00 -5.244516e+00 191 142 110
9.915381e-01 -1.604807e+00 -5.689477e+00 156 125 117
1.354590e+00 -1.540017e+00 -5.499666e+00 164 136 130
1.267396e+00 -1.535628e+00 -5.531735e+00 133 83 57
1.351138e+00 -1.512362e+00 -5.496930e+00 196 166 155
1.041578e+00 -1.528194e+00 -5.616572e+00 198 165 138
2.126304e+00 -1.396997e+00 -5.173898e+00 129 95 78
2.130629e+00 -1.401070e+00 -5.188283e+00 129 95 78
1.170471e+00 -1.494102e+00 -5.562665e+00 163 126 107
7.010399e-01 -1.506888e+00 -5.727139e+00 158 122 107
8.451440e-01 -1.472518e+00 -5.691799e+00 182 141 110
5.816028e-01 -1.490260e+00 -5.771747e+00 204 181 165
3.261699e-02 -1.557192e+00 -5.999700e+00 141 134 144
8.618803e-01 -1.462140e+00 -5.688913e+00 243 213 191
2.864252e-01 -1.507970e+00 -5.897872e+00 168 131 124
4.585921e-01 -1.489867e+00 -5.837610e+00 142 101 100
4.603625e-01 -1.492560e+00 -5.847694e+00 142 101 100
4.286175e-01 -1.485776e+00 -5.843995e+00 177 120 103
4.144733e-01 -1.488960e+00 -5.860435e+00 179 129 107
-2.072272e+00 -4.052806e+00 -1.505867e+01 111 116 128
8.424627e-01 -1.427171e+00 -5.704708e+00 198 174 151
1.226205e+00 -1.377946e+00 -5.566070e+00 234 214 198
3.684964e-01 -1.448354e+00 -5.817016e+00 164 125 125
2.406433e-01 -1.462390e+00 -5.932352e+00 255 240 229
1.882883e-01 -1.465357e+00 -5.943886e+00 167 131 131
7.018484e-01 -1.404638e+00 -5.797588e+00 238 207 187
1.778132e+00 -1.309968e+00 -5.444015e+00 191 164 157
1.325469e-01 -1.440717e+00 -6.017295e+00 135 104 109
1.689730e+00 -1.289634e+00 -5.457701e+00 227 196 195
1.685175e+00 -1.301146e+00 -5.510724e+00 225 196 192
1.753675e+00 -1.254041e+00 -5.460477e+00 95 50 35
1.722771e+00 -1.253985e+00 -5.491797e+00 178 137 97
5.451416e-01 -1.334186e+00 -5.960053e+00 146 127 132
3.203005e-01 -1.351111e+00 -6.039892e+00 180 163 163
1.102770e+00 -1.257898e+00 -5.725442e+00 145 92 60
1.291260e+00 -1.168287e+00 -5.584057e+00 180 138 106
3.537746e-01 -1.232696e+00 -5.996282e+00 86 39 23
1.984559e+00 -1.069598e+00 -5.312225e+00 184 155 150
1.827895e+00 -1.077399e+00 -5.364260e+00 173 119 76
2.016951e+00 -1.055783e+00 -5.293038e+00 145 110 106
6.951388e-01 -1.157153e+00 -5.758323e+00 170 120 93
7.587699e-01 -1.134439e+00 -5.805435e+00 167 135 136
2.088935e+00 -9.949096e-01 -5.255120e+00 184 164 173
2.757185e-01 -1.162214e+00 -6.016380e+00 123 99 104
1.990731e+00 -1.003239e+00 -5.366058e+00 152 120 107
6.223254e-02 -1.162048e+00 -6.082923e+00 34 40 51
1.123619e-01 -1.156785e+00 -6.074249e+00 131 118 144
9.172298e-02 -1.151157e+00 -6.059091e+00 122 112 142
2.105702e+00 -9.813927e-01 -5.320260e+00 110 83 75
1.869527e-01 -1.147481e+00 -6.069129e+00 229 222 237
1.869527e-01 -1.147481e+00 -6.069129e+00 229 222 237
1.471644e+00 -1.026276e+00 -5.562880e+00 188 148 117
1.471644e+00 -1.026276e+00 -5.562880e+00 188 148 117
8.464927e-01 -1.053709e+00 -5.807283e+00 177 130 84
1.802373e-01 -1.099569e+00 -6.046454e+00 186 151 135
7.511079e-01 -1.055923e+00 -5.858024e+00 132 77 37
4.606562e-01 -1.057876e+00 -5.996603e+00 113 58 29
1.100241e+00 -1.008488e+00 -5.796429e+00 165 123 85
-3.367167e-01 -1.027383e+00 -6.002640e+00 67 84 106
-2.994321e-01 -8.848288e-01 -5.984085e+00 62 66 75
-3.781636e-01 -7.866163e-01 -5.952456e+00 49 60 98
2.300395e+00 -4.880851e-01 -4.990124e+00 65 81 103
2.369903e+00 -4.486929e-01 -4.976560e+00 61 75 94
-2.344969e-01 -5.898004e-01 -6.030722e+00 81 94 112
-3.435465e-01 -5.458816e-01 -6.051238e+00 125 141 166
-3.434730e-01 -5.459885e-01 -6.052815e+00 125 141 166
-3.032687e+00 -2.031601e+00 -1.734899e+01 132 145 162
-5.581246e-01 -3.711760e-01 -6.004766e+00 94 107 129
-3.803489e-01 -2.351666e-01 -6.118097e+00 165 181 207
-4.320133e-01 -2.252691e-01 -6.062450e+00 87 97 110
2.457209e+00 -1.643038e-02 -5.082355e+00 74 58 52
-3.938210e-01 -1.076703e-01 -6.275146e+00 152 120 117
-7.045184e-01 7.975439e-02 -6.577158e+00 217 191 169
-7.379150e-02 2.169293e-01 -6.400028e+00 149 138 119
-4.229961e-01 3.530253e-01 -6.139803e+00 85 82 81
2.476769e+00 5.461248e-01 -5.204728e+00 59 175 170
-1.703889e-01 5.891117e-01 -6.365963e+00 202 214 241
-2.986309e-01 5.878316e-01 -6.244676e+00 174 136 117
4.514246e-01 7.255252e-01 -6.754604e+00 146 149 158
2.469441e+00 7.622464e-01 -5.145991e+00 80 43 39
2.469441e+00 7.622464e-01 -5.145991e+00 80 43 39
1.571804e+00 3.208394e+00 -2.631806e+01 78 83 91
3.299080e+00 2.980762e+00 -1.508826e+01 171 134 105
-2.150054e+00 -4.949983e+00 -1.156416e+01 118 128 138
1.951139e+00 -1.506938e+00 -5.269208e+00 160 115 89
1.943518e+00 -1.500553e+00 -5.247249e+00 160 115 89
1.568974e+00 -1.511506e+00 -5.413694e+00 139 100 72
1.406128e+00 -1.525466e+00 -5.492275e+00 122 76 53
9.815791e-01 -1.568584e+00 -5.651500e+00 148 102 86
7.973335e-01 -1.575614e+00 -5.713101e+00 141 103 88
1.979552e-01 -1.660286e+00 -5.991194e+00 38 29 40
1.211908e+00 -1.509889e+00 -5.542580e+00 127 89 77
3.934919e-01 -1.584703e+00 -5.941793e+00 196 143 104
1.504674e-01 -1.581872e+00 -5.984732e+00 162 145 152
1.382418e-01 -1.580927e+00 -5.986200e+00 148 136 143
4.901553e-01 -1.482154e+00 -5.823362e+00 240 217 215
4.901553e-01 -1.482154e+00 -5.823362e+00 240 217 215
5.638069e-01 -1.471129e+00 -5.806902e+00 134 91 61
4.430807e-01 -1.485310e+00 -5.867380e+00 215 170 156
4.430807e-01 -1.485310e+00 -5.867380e+00 215 170 156
3.866319e-01 -1.464225e+00 -5.860370e+00 149 106 91
4.821174e-01 -1.450365e+00 -5.848660e+00 243 221 211
1.694381e+00 -1.322719e+00 -5.492996e+00 197 177 169
6.533140e-02 -1.462800e+00 -6.056744e+00 129 119 131
2.001740e+00 -1.254439e+00 -5.359240e+00 134 107 121
1.792894e+00 -1.243815e+00 -5.452701e+00 173 120 78
7.523385e-01 -1.195571e+00 -5.769766e+00 196 153 117
3.298793e-01 -1.222253e+00 -5.962141e+00 98 47 29
8.592413e-01 -1.162877e+00 -5.752415e+00 156 104 58
8.225990e-01 -1.164401e+00 -5.764208e+00 182 129 80
2.524973e-01 -1.225847e+00 -6.020921e+00 161 101 65
9.879799e-02 -1.239563e+00 -6.086071e+00 61 28 23
2.031107e+00 -1.038658e+00 -5.296981e+00 139 129 153
8.716582e-02 -1.212411e+00 -6.048426e+00 93 51 53
7.433406e-02 -1.203843e+00 -6.050437e+00 185 170 171
2.472829e-01 -1.159379e+00 -6.011987e+00 170 140 149
1.670144e-01 -1.135224e+00 -6.027279e+00 241 235 238
1.758746e-01 -1.106523e+00 -6.003916e+00 171 153 157
9.222987e-01 -1.022251e+00 -5.844520e+00 144 100 58
1.230106e+00 -9.951989e-01 -5.772660e+00 160 113 67
-4.442738e-01 -7.875919e-01 -6.031287e+00 128 142 169
-4.681998e-01 -7.715916e-01 -6.012578e+00 110 126 143
-1.207884e-01 -3.582080e-01 -5.941076e+00 72 86 105
2.254738e+00 -8.287557e-02 -5.013191e+00 100 115 135
2.254738e+00 -8.287557e-02 -5.013191e+00 100 115 135
2.461137e+00 -1.993987e-02 -5.131118e+00 78 62 58
2.377970e+00 5.056568e-01 -5.243132e+00 179 162 142
7.097826e-01 -1.461013e+00 -5.777641e+00 243 202 154
2.887109e-01 -1.482599e+00 -5.897773e+00 181 136 134
1.618368e-01 -1.484325e+00 -5.975108e+00 225 181 185
1.390962e-01 -1.483032e+00 -6.000992e+00 199 159 162
2.210538e-01 -1.305340e+00 -6.055309e+00 119 73 58
7.075244e-01 -1.147100e+00 -5.796166e+00 172 132 96
7.060995e-01 -1.144280e+00 -5.782498e+00 172 132 96
6.172959e-01 -1.127253e+00 -5.781341e+00 146 121 114
1.271180e+00 -1.019207e+00 -5.664213e+00 180 147 109
-3.376655e-01 -6.083250e-01 -6.055887e+00 66 81 104
-3.376655e-01 -6.083250e-01 -6.055887e+00 66 81 104
-7.840053e-01 -2.387070e+00 -6.256110e+00 179 185 197
-3.573696e-01 9.281752e-02 -6.143999e+00 245 247 251
-7.718223e-01 -1.555407e+00 -6.324049e+00 181 183 195
-5.213732e-01 -1.287901e+00 -6.342982e+00 30 35 41
2.222218e+00 -8.154012e-01 -5.426266e+00 21 21 21
2.141198e+00 -1.191989e+00 -5.284932e+00 15 13 14
1.907692e-01 -1.106690e+00 -5.960473e+00 150 137 142
-2.828134e-01 -1.100413e+00 -6.311004e+00 33 48 69
2.414154e+00 6.224683e-03 -5.284723e+00 24 24 26
-6.995576e+00 1.119749e+00 -2.829286e+01 153 147 147
-7.029321e+00 1.130414e+00 -2.846396e+01 153 147 147
-2.313742e+00 -4.168049e+00 -1.283459e+01 100 117 135
-3.507709e+00 -4.254553e+00 -1.330372e+01 45 56 71
1.091975e-01 -1.131997e+00 -5.981405e+00 158 147 173
1.091975e-01 -1.131997e+00 -5.981405e+00 158 147 173
-2.163140e+00 -1.174470e+00 -1.908732e+01 31 34 41
2.169396e+00 3.704554e-01 -5.297122e+00 247 221 191
-2.172778e+00 -1.488537e-01 -2.146244e+01 63 71 74
1.641330e+00 1.114222e+00 -1.125377e+01 174 126 90
9.866431e+00 5.075120e+00 -2.828195e+01 132 156 182
2.122441e+00 -7.311752e-01 -5.572646e+00 17 18 21
-4.453441e+00 -3.166991e+00 -1.852464e+01 182 181 186
-3.504774e-01 -4.262592e-01 -5.971229e+00 17 17 25
2.351923e+00 2.116619e-01 -5.364271e+00 184 130 87
-4.876844e-01 3.499677e-01 -6.339813e+00 175 253 255
2.370955e+00 5.682110e-01 -5.181708e+00 183 255 255
-9.028909e+00 8.495903e+00 -2.438308e+01 184 181 172
9.804390e-01 -1.334225e+00 -5.790866e+00 202 180 173
8.491949e-02 -1.388064e+00 -6.102674e+00 20 19 24
2.138822e+00 -8.571017e-01 -5.574670e+00 87 89 78
-5.645291e+00 -3.192649e+00 -1.873551e+01 179 182 189
2.198064e+00 -2.794686e-01 -4.947176e+00 14 19 25
-2.495036e-01 -4.108843e-01 -5.944426e+00 18 21 25
-7.062253e-01 -2.717929e-01 -6.472863e+00 191 190 193
1.993877e+00 -1.303694e+00 -5.270848e+00 117 84 84
1.461488e+00 -1.303076e+00 -5.610394e+00 248 226 213
4.700083e-01 -1.079619e+00 -5.760323e+00 226 203 192
-5.940242e+00 -3.192197e+00 -1.866992e+01 181 184 191
-2.064288e-01 -3.595167e-01 -6.104139e+00 163 180 198
-2.127802e+00 -8.392108e-02 -2.151544e+01 37 44 50
-2.882541e+00 -4.107021e+00 -1.305006e+01 57 71 81
-4.924522e+00 -4.202912e+00 -1.376224e+01 27 29 39
1.968686e+00 -1.306799e+00 -5.349383e+00 110 85 88
1.876682e+00 -1.278836e+00 -5.426966e+00 211 179 165
1.453916e+00 -1.298394e+00 -5.594760e+00 248 227 212
1.674008e+00 -1.112798e+00 -5.411636e+00 208 155 100
-2.400671e+00 -3.144147e+00 -1.508312e+01 36 46 58
-4.484392e+00 -3.231258e+00 -1.577144e+01 21 23 28
2.258712e+00 -6.468156e-01 -5.002024e+00 165 193 219
2.291093e+00 -1.026757e-01 -5.117837e+00 126 140 166
7.679413e-02 1.070038e+00 -2.268539e+01 25 31 39
3.272262e-01 1.094129e+00 -2.267465e+01 25 35 39
-3.392290e+00 -5.140580e+00 -1.327585e+01 81 92 108
2.462334e+00 -2.899661e+00 -9.324938e+00 11 15 16
1.335319e+00 -1.423681e+00 -5.464206e+00 175 148 143
1.742534e+00 -1.314747e+00 -5.249248e+00 196 164 142
1.516588e+00 -1.337053e+00 -5.543284e+00 165 135 118
1.333580e+00 -1.344223e+00 -5.579957e+00 202 173 151
2.133287e+00 -8.375788e-01 -5.536552e+00 86 89 78
-5.278303e+00 -3.191004e+00 -1.846004e+01 181 181 189
-2.109409e-01 -7.869666e-01 -6.084326e+00 145 163 185
-6.633824e-01 -7.461623e-01 -6.430696e+00 192 190 192
2.140055e+00 -1.140071e-01 -5.173315e+00 28 33 39
-1.397677e-01 2.314449e-01 -6.286554e+00 199 156 108
-1.724940e+00 -4.503306e-02 -2.122714e+01 27 31 40
-2.126917e-01 5.194770e-01 -6.366204e+00 117 84 69
1.693642e-01 9.445248e-01 -2.286738e+01 122 130 135
2.420894e+00 7.376861e-01 -5.265269e+00 219 163 124
5.573945e-01 1.776587e+00 -2.480827e+01 156 155 153
1.705385e+00 1.871888e+00 -2.457996e+01 167 168 173
-9.285020e-02 2.136886e+00 -2.491405e+01 149 162 171
-2.461953e+00 -5.032522e+00 -1.061165e+01 154 152 167
-2.600640e+00 -5.048177e+00 -1.068451e+01 169 170 183
-4.173287e+00 -5.277539e+00 -1.140037e+01 110 131 145
-3.698758e+00 -5.167416e+00 -1.342682e+01 83 91 109
-6.011367e+00 -5.289842e+00 -1.434210e+01 66 74 85
1.708748e+00 -1.752173e+00 -5.573739e+00 9 10 12
1.902609e+00 -1.498262e+00 -5.277928e+00 171 122 90
1.697972e+00 -1.458856e+00 -5.352774e+00 222 184 139
-3.767460e+00 -4.117855e+00 -1.563890e+01 182 188 198
-3.888097e+00 -4.150310e+00 -1.579139e+01 176 176 186
-8.005744e+00 -4.380087e+00 -1.724646e+01 80 85 91
-3.732836e+00 -3.455989e+00 -1.562127e+01 174 175 178
-1.261582e+00 -3.068179e+00 -1.450412e+01 43 51 61
-1.834384e+00 -1.348186e+00 -1.931222e+01 185 180 173
-1.686469e+00 -3.326808e-01 -2.144175e+01 169 165 162
2.452400e+00 6.124895e-01 -5.253851e+00 175 124 78
1.061564e-01 7.623940e-01 -2.297975e+01 167 171 180
2.902066e-01 9.679415e-01 -2.280660e+01 136 141 145
-4.316630e-01 1.744803e+00 -2.534308e+01 157 150 151
-1.620484e-01 2.020943e+00 -2.502852e+01 21 21 23
9.341233e+00 5.730000e+00 -2.744562e+01 175 174 180
-1.847686e+00 -4.949907e+00 -1.037505e+01 135 148 174
-2.114232e+00 -4.964202e+00 -1.046828e+01 139 154 179
-2.600376e+00 -5.046227e+00 -1.068005e+01 170 170 182
-2.472418e+00 -4.986188e+00 -1.061339e+01 130 146 167
-2.739047e+00 -4.996997e+00 -1.070622e+01 132 142 167
